ply
format ascii 1.0
element vertex 1263
property float x
property float y
property float z
property uchar red
property uchar green
property uchar blue
end_header
-0.333270 -0.392084 0.242431 76 0 153
0.356934 0.505589 0.160553 76 153 0
-0.084624 -0.406718 0.227074 76 0 153
-0.244558 -0.878470 0.027986 153 0 76
-0.312858 -0.857994 0.092310 153 0 76
-0.486785 0.227474 -0.147596 0 127 127
-0.327464 0.803631 0.156610 76 0 153
-0.232487 0.459389 0.227074 76 153 0
0.004828 -0.168962 0.164384 127 0 127
0.012716 -0.829786 0.242431 0 0 255
0.340103 0.193470 0.170226 0 127 127
0.232389 0.505589 -0.046530 76 153 0
-0.022781 0.803631 -0.020954 76 0 153
0.480709 0.477837 -0.199384 127 0 127
-0.222295 -0.878470 0.125469 153 0 76
0.016208 -0.501960 0.016992 127 127 0
0.480709 0.668822 -0.083364 127 0 127
-0.054599 -0.168962 -0.001049 127 0 127
-0.385196 -0.501960 -0.049119 127 127 0
0.496066 0.647430 0.116367 127 0 127
-0.471428 0.486491 0.092867 0 127 127
0.103350 -0.047121 -0.245155 204 51 127
0.305754 -0.355733 0.227074 0 0 255
0.480709 0.381084 0.207840 127 0 127
-0.167564 0.617579 0.242431 76 153 0
0.480709 -0.144956 -0.009321 127 0 127
-0.141460 -0.708177 -0.229798 76 153 0
0.496066 -0.546474 0.187247 127 0 127
0.096352 0.526065 -0.094649 76 153 0
0.377521 -0.245390 -0.229798 76 153 0
-0.262912 0.075723 0.227074 76 0 153
0.373541 -0.857994 -0.105543 153 0 76
0.065832 0.377162 -0.229798 76 153 0
-0.417509 -0.878470 -0.000835 153 0 76
-0.239328 0.505589 -0.175965 76 153 0
0.480709 0.147038 -0.011518 127 0 127
0.496066 0.091655 -0.139802 127 0 127
-0.273766 0.213946 0.080585 0 127 127
0.480709 -0.298689 -0.188796 127 0 127
0.029493 0.803631 -0.029824 76 0 153
0.304557 -0.501960 0.099356 127 127 0
0.324480 -0.857994 -0.047167 153 0 76
-0.047871 -0.522436 -0.143704 127 127 0
-0.223571 -0.794391 0.242431 76 0 153
0.284637 0.725447 -0.224679 76 153 0
0.303443 0.597126 -0.229798 76 153 0
0.358992 -0.848212 0.242431 0 0 255
0.077225 0.469697 -0.229798 76 153 0
0.452435 0.340938 -0.229798 76 153 0
0.002095 -0.552904 -0.229798 76 153 0
0.364206 0.541768 -0.229798 76 153 0
0.014491 -0.393601 -0.229798 76 153 0
0.496066 -0.248673 -0.214472 127 0 127
-0.471428 -0.268988 -0.216921 0 127 127
0.187600 0.505589 0.208679 76 153 0
0.496066 0.065260 -0.172980 127 0 127
-0.132405 -0.522436 -0.093672 127 127 0
-0.103352 0.193470 0.140541 0 127 127
-0.236007 0.037715 0.242431 76 0 153
0.092370 0.824107 0.053974 76 0 153
0.107155 0.505589 -0.195208 76 153 0
-0.471428 -0.389508 -0.164675 0 127 127
-0.113156 0.526065 0.053421 76 153 0
0.496066 0.171499 0.064032 127 0 127
-0.057634 -0.286257 0.227074 76 0 153
-0.217694 -0.357531 0.242431 76 0 153
0.228862 0.293387 0.242431 76 0 153
-0.095269 0.491956 -0.229798 76 153 0
0.171849 -0.456774 0.227074 0 0 255
-0.121428 -0.168962 -0.153780 127 0 127
-0.111476 0.199314 0.225794 0 127 127
-0.486785 -0.213905 -0.001704 0 127 127
-0.184441 0.052729 0.227074 76 0 153
0.100047 -0.099860 0.227074 0 0 255
0.141552 -0.148486 -0.191248 127 0 127
-0.030917 -0.555383 0.227074 76 0 153
0.013019 -0.428378 0.242431 76 0 153
-0.471428 0.492977 0.060349 0 127 127
0.288316 0.152237 -0.229798 76 153 0
-0.486785 0.592536 -0.130049 0 127 127
0.387891 -0.098822 -0.229798 76 153 0
0.166196 -0.168962 -0.127534 127 0 127
-0.471428 0.314322 -0.149959 0 127 127
-0.385640 0.803631 -0.215160 76 0 153
0.188813 0.783463 -0.245155 153 0 76
-0.348708 -0.522436 0.137836 127 127 0
-0.171071 0.213946 -0.052260 0 127 127
0.480709 -0.450969 -0.180225 127 0 127
0.160827 -0.413697 -0.224679 76 153 0
0.399524 0.412370 0.227074 76 0 153
-0.486785 0.817412 -0.024838 0 127 127
-0.011601 0.415821 0.242431 76 153 0
-0.471428 0.049130 -0.143110 0 127 127
0.267900 0.803631 0.123546 76 0 153
0.070132 0.803631 -0.055209 76 0 153
0.496066 -0.245355 -0.176205 127 0 127
-0.471428 -0.360608 -0.087099 0 127 127
0.313269 -0.857994 0.016371 153 0 76
-0.244097 0.803631 -0.241581 76 0 153
0.058414 0.803631 0.054001 76 0 153
0.064962 -0.857994 0.056349 153 0 76
0.080229 0.795277 0.242431 76 0 153
-0.471428 -0.460146 0.008524 0 127 127
0.039668 -0.878470 -0.166588 153 0 76
-0.125251 0.340958 0.242431 76 153 0
0.367211 -0.026064 -0.224679 76 153 0
-0.396866 0.526065 -0.210498 76 153 0
0.008923 -0.857994 -0.187692 153 0 76
-0.421018 -0.501960 0.051146 127 127 0
-0.390637 -0.355821 0.227074 76 0 153
0.480709 0.480133 0.129410 127 0 127
-0.389711 -0.148486 -0.022094 127 0 127
0.385598 0.562180 0.227074 76 0 153
-0.305531 0.824107 -0.074707 76 0 153
-0.486785 -0.088650 -0.208946 0 127 127
-0.311766 0.003517 -0.224679 76 153 0
0.229735 0.505589 -0.151078 76 153 0
-0.151219 -0.046490 0.227074 76 0 153
0.101973 -0.857994 -0.215694 153 0 76
-0.275575 -0.119924 0.227074 76 0 153
0.186368 -0.645698 -0.229798 76 153 0
-0.289676 0.505589 -0.177050 76 153 0
0.313151 -0.501960 -0.170949 127 127 0
0.300009 0.212769 0.242431 0 0 255
0.034258 -0.857994 -0.080032 153 0 76
-0.460498 0.390257 0.227074 76 153 0
0.127502 0.505589 0.004931 76 153 0
0.496066 0.418418 -0.072632 127 0 127
-0.004142 0.505589 -0.119643 76 153 0
0.140820 0.084810 -0.224679 76 153 0
-0.215318 -0.141727 -0.229798 76 153 0
-0.214381 0.824107 0.121963 76 0 153
0.003624 -0.168962 -0.054769 127 0 127
0.326687 -0.057201 -0.224679 76 153 0
0.078677 -0.522436 0.117644 127 127 0
-0.244297 -0.501960 -0.182259 127 127 0
0.480709 -0.248370 0.091353 127 0 127
0.213358 -0.501960 -0.148991 127 127 0
0.358983 -0.878470 -0.145451 153 0 76
-0.134592 -0.766632 -0.229798 76 153 0
0.170962 -0.148486 -0.079603 127 0 127
-0.374674 0.526065 0.132620 76 153 0
0.480709 0.508760 -0.243254 127 0 127
-0.177638 -0.148486 0.114761 127 0 127
0.468939 -0.099667 0.227074 0 0 255
-0.000757 -0.303551 0.227074 76 0 153
-0.168851 0.824107 0.160719 76 0 153
-0.471325 -0.501960 0.215388 76 0 153
-0.469097 0.505969 0.227074 76 153 0
0.380617 -0.102665 0.227074 0 0 255
0.209540 0.450630 -0.224679 76 153 0
-0.016030 0.213946 -0.078803 0 127 127
-0.189317 0.199399 0.227074 0 127 127
-0.005627 0.380896 0.227074 76 153 0
0.106614 0.538052 0.242431 76 0 153
-0.471428 -0.405805 0.006788 0 127 127
-0.128406 -0.857994 -0.030596 153 0 76
-0.471428 -0.550331 -0.217616 0 127 127
-0.233258 0.503324 0.242431 76 153 0
-0.021152 -0.875910 0.236947 76 0 153
0.084705 -0.546967 -0.229798 76 153 0
0.496066 0.643470 -0.162244 127 0 127
-0.418022 0.615147 0.242431 76 153 0
-0.101136 -0.013541 -0.224679 76 153 0
-0.199691 -0.522436 0.057867 127 127 0
0.235683 -0.032396 0.242431 0 0 255
0.107587 -0.857994 0.121541 153 0 76
0.268847 0.193470 0.078333 0 127 127
0.233775 0.526065 -0.098628 76 153 0
0.147311 0.483314 0.227074 76 0 153
0.244644 -0.518845 0.242431 0 0 255
0.289491 -0.878470 -0.200047 153 0 76
-0.471428 0.731638 -0.063492 0 127 127
-0.446823 0.193470 -0.132834 0 127 127
0.480709 0.430965 0.215626 127 0 127
-0.358156 -0.857994 -0.191839 153 0 76
0.043340 0.364868 0.269298 153 0 76
0.259067 0.754631 -0.224679 76 153 0
0.480709 0.470452 -0.134797 127 0 127
-0.402931 0.213946 0.118593 0 127 127
-0.486785 -0.537928 0.061980 0 127 127
0.159023 0.526065 0.074299 76 153 0
0.236437 -0.388961 0.227074 0 0 255
-0.204127 0.193470 -0.150915 0 127 127
0.409313 -0.146011 -0.229798 76 153 0
-0.148299 0.824107 -0.136568 76 0 153
0.059520 0.038336 -0.224679 76 153 0
-0.010684 -0.148486 -0.012792 127 0 127
0.429427 -0.878470 -0.011521 153 0 76
-0.253471 0.319397 0.227074 76 153 0
0.026481 0.193470 -0.065877 0 127 127
0.354376 0.012274 0.227074 0 0 255
0.314121 0.803631 0.015616 76 0 153
0.496066 -0.727728 0.198076 127 0 127
0.390308 -0.148486 -0.163776 127 0 127
0.400396 -0.037846 -0.224679 76 153 0
0.373365 -0.168962 -0.209911 76 153 0
0.292040 -0.168962 0.101803 127 0 127
0.047425 0.796016 -0.224679 76 153 0
0.480709 -0.776406 0.201631 127 0 127
-0.486785 0.161928 -0.092275 0 127 127
-0.338977 0.556302 0.242431 76 153 0
-0.164826 0.193470 0.010691 0 127 127
-0.471428 -0.348695 0.157588 0 127 127
0.480709 0.680446 0.199883 127 0 127
0.003361 -0.123000 0.234082 0 0 255
-0.486785 0.717619 -0.010524 0 127 127
-0.486785 0.809143 -0.096776 0 127 127
-0.066912 -0.728320 0.227074 76 0 153
-0.298992 -0.878470 0.181263 153 0 76
0.240854 -0.857994 0.217164 0 0 255
0.420038 -0.501960 -0.211089 127 127 0
0.130779 0.803631 -0.012175 76 0 153
0.447275 0.110893 0.242431 0 0 255
-0.355661 0.628287 0.242431 76 153 0
0.039051 0.824107 0.102505 76 0 153
0.237452 -0.878470 -0.209439 153 0 76
0.496066 -0.141094 0.160100 127 0 127
0.381692 -0.575728 -0.224679 76 153 0
0.303716 0.193470 -0.173856 0 127 127
-0.233411 0.193470 0.130881 0 127 127
-0.471428 0.713180 -0.223747 76 153 0
0.480709 -0.317645 -0.003840 127 0 127
-0.133464 0.682987 -0.229798 76 153 0
0.232018 0.070880 0.227074 0 0 255
-0.104442 -0.598110 0.242431 76 0 153
-0.379937 0.488674 -0.229798 76 153 0
-0.486785 -0.580048 0.145385 0 127 127
0.283660 0.296430 0.227074 76 0 153
-0.486785 -0.754113 -0.191599 0 127 127
0.348685 0.526065 -0.116284 76 153 0
0.218592 0.597203 0.242431 76 0 153
-0.031382 -0.857994 -0.241466 0 0 255
-0.019969 0.803631 -0.178000 76 0 153
0.468275 -0.522436 0.020167 127 127 0
-0.164210 0.269114 -0.224679 76 153 0
0.188757 -0.089618 0.227074 0 0 255
0.281813 -0.450998 0.242431 0 0 255
-0.030248 0.479713 -0.229798 76 153 0
-0.456064 0.059335 -0.224679 76 153 0
0.321762 0.711402 -0.245155 153 0 76
0.313573 -0.168962 -0.046190 127 0 127
-0.240058 0.204988 0.238895 76 0 153
-0.000292 -0.501960 -0.022408 127 127 0
-0.130687 -0.698695 0.242431 76 0 153
-0.340422 -0.522436 -0.029374 127 127 0
0.496066 0.269850 -0.070815 127 0 127
0.321624 -0.501960 0.193629 127 127 0
0.374498 0.145169 -0.229798 76 153 0
0.140996 0.213946 0.012740 0 127 127
0.201526 0.635993 -0.229798 76 153 0
-0.407593 0.213946 -0.088363 0 127 127
0.212273 -0.501960 -0.038249 127 127 0
0.373573 -0.878470 0.054302 153 0 76
-0.177459 0.193470 -0.189648 0 127 127
0.496066 0.600973 0.146190 127 0 127
-0.293791 0.724906 -0.245155 153 0 76
-0.254247 0.193470 0.185965 0 127 127
0.232928 0.364354 -0.224679 76 153 0
0.132391 -0.168962 0.084835 127 0 127
-0.381376 0.193470 -0.025914 0 127 127
0.129737 0.243905 0.227074 76 0 153
-0.295061 -0.356614 -0.229798 76 153 0
0.249797 -0.184267 0.242431 0 0 255
0.290709 -0.168962 -0.110038 127 0 127
-0.486785 -0.700278 0.133576 0 127 127
-0.017091 -0.501960 0.063666 127 127 0
-0.071440 0.193470 0.080953 0 127 127
-0.257036 0.662928 0.227074 76 153 0
-0.486785 -0.784295 -0.159099 0 127 127
0.323726 0.612843 0.242431 76 0 153
-0.088763 0.803631 -0.169203 76 0 153
0.254436 0.801924 -0.245155 153 0 76
0.480709 -0.096231 -0.071624 127 0 127
0.064278 0.435797 -0.224679 76 153 0
-0.471428 0.641348 0.144387 0 127 127
-0.178187 0.384568 -0.229798 76 153 0
-0.066088 -0.789942 0.242431 76 0 153
0.074032 -0.182635 -0.224679 76 153 0
-0.021712 0.666522 0.242431 76 153 0
-0.343509 0.193470 0.167666 0 127 127
0.271743 0.366055 -0.224679 76 153 0
0.276025 0.824107 -0.157916 76 0 153
-0.382695 -0.501960 0.095828 127 127 0
-0.486785 -0.104061 0.124680 0 127 127
0.095322 0.824107 0.015407 76 0 153
0.480709 -0.357970 0.105378 127 0 127
0.496066 -0.757140 -0.020230 127 0 127
0.335134 0.526065 -0.139778 76 153 0
-0.471428 0.623981 0.069943 0 127 127
-0.328868 0.526065 -0.045529 76 153 0
-0.393022 -0.878470 0.048482 153 0 76
0.496066 -0.365872 0.200069 127 0 127
0.496066 -0.518061 -0.018612 127 0 127
-0.095817 -0.501960 -0.032447 127 127 0
-0.467949 -0.401290 -0.224679 0 127 127
0.122342 -0.559343 0.242431 0 0 255
0.425386 0.193470 -0.053924 0 127 127
-0.341358 -0.878470 0.194841 153 0 76
-0.186289 0.803631 -0.110872 76 0 153
0.472530 0.400647 -0.229798 76 153 0
0.496066 0.451200 0.085742 127 0 127
-0.270783 -0.857994 -0.026834 153 0 76
-0.255024 -0.711655 0.242431 76 0 153
0.175540 0.213946 -0.181358 0 127 127
0.168769 -0.878470 0.199215 153 0 76
0.236016 0.803631 -0.197595 76 0 153
0.168766 0.254203 0.242431 76 0 153
-0.169708 0.803631 0.117954 76 0 153
0.482526 -0.209869 0.242431 0 0 255
0.200495 0.526065 0.102228 76 153 0
-0.246268 0.522985 -0.224679 76 153 0
0.377125 0.824107 -0.050761 76 0 153
-0.058735 -0.286599 -0.224679 76 153 0
0.496066 0.617993 -0.144516 127 0 127
-0.329393 0.384421 0.227074 76 153 0
-0.486785 0.512165 -0.150849 0 127 127
-0.078409 0.539833 0.242431 76 153 0
-0.428261 -0.001808 -0.224679 204 51 127
-0.088218 0.193470 0.111097 0 127 127
0.275542 -0.168962 -0.168222 127 0 127
-0.362132 -0.501960 0.215827 127 127 0
-0.308123 0.592166 0.242431 76 153 0
-0.461988 0.196966 -0.224679 0 127 127
-0.486785 0.748909 0.046867 0 127 127
0.228739 0.730915 0.242431 76 0 153
0.480709 -0.361323 0.161792 127 0 127
0.022456 0.723878 -0.224679 153 0 76
-0.170324 -0.143925 0.242431 76 0 153
0.263538 0.803631 -0.000462 76 0 153
-0.281253 -0.168962 0.146186 127 0 127
-0.419111 0.688662 0.227074 76 153 0
0.254090 -0.455817 -0.224679 76 153 0
0.250471 -0.148486 0.182320 127 0 127
0.330615 0.548484 0.227074 76 0 153
0.177914 0.376497 0.227074 76 0 153
0.272206 0.526065 -0.199876 76 153 0
0.385974 0.526065 -0.160182 76 153 0
0.236607 0.447440 0.227074 76 0 153
0.053997 0.213946 0.188758 0 127 127
-0.448487 -0.164285 0.242431 76 0 153
0.179848 0.824107 0.151022 76 0 153
0.480709 -0.121280 -0.199859 127 0 127
0.363001 0.803631 -0.066641 76 0 153
-0.104170 0.824107 0.122886 76 0 153
0.024002 0.213946 -0.088974 0 127 127
0.212852 0.824107 0.008376 76 0 153
-0.243282 -0.878470 -0.158093 153 0 76
-0.198762 0.526065 0.189366 76 153 0
0.080803 -0.185803 0.242431 0 0 255
-0.471428 -0.046019 0.083349 0 127 127
0.300955 -0.645819 0.242431 0 0 255
0.225120 -0.267869 0.242431 0 0 255
-0.449382 -0.206036 -0.229798 76 153 0
0.342555 0.526065 -0.039032 76 153 0
0.496066 -0.011093 -0.132429 127 0 127
-0.486785 -0.585871 -0.013711 0 127 127
0.454121 -0.474132 0.227074 0 0 255
-0.340907 0.526065 0.140414 76 153 0
0.206285 0.599466 -0.224679 76 153 0
0.410789 -0.522436 0.170277 127 127 0
-0.252160 0.526065 -0.091044 76 153 0
-0.236284 0.820895 0.225794 76 153 0
-0.129222 0.296585 0.227074 76 153 0
0.106532 -0.857994 0.196488 153 0 76
0.054140 0.341224 0.227074 76 0 153
0.496066 0.616687 -0.090587 127 0 127
-0.306461 -0.513281 -0.224679 127 127 0
0.052933 -0.878470 -0.046670 153 0 76
0.277057 -0.857994 0.147923 153 0 76
0.104398 -0.878470 0.007893 153 0 76
0.017091 -0.451768 0.227074 0 0 255
-0.207905 0.193470 0.083270 0 127 127
0.432042 0.039315 -0.224679 76 153 0
0.362371 0.213946 0.130804 0 127 127
0.183817 -0.878470 0.086468 153 0 76
0.496066 -0.482743 0.223949 153 76 0
-0.202897 -0.522436 -0.197804 127 127 0
-0.413032 0.150177 0.242431 76 0 153
0.364104 -0.168962 -0.090685 127 0 127
0.480709 0.548631 -0.155824 127 0 127
0.496066 0.716462 0.212104 153 76 0
0.469084 0.458454 -0.224679 76 153 0
0.336768 -0.501960 0.128227 127 127 0
-0.486785 0.318839 0.129595 0 127 127
-0.468384 -0.857994 -0.009758 153 0 76
-0.429126 0.526065 -0.133646 76 153 0
-0.144599 -0.168962 0.167278 127 0 127
-0.319860 0.803631 -0.156732 76 0 153
0.094141 0.526065 0.178676 76 153 0
-0.182529 -0.857994 -0.029690 153 0 76
-0.471428 0.167040 0.191648 0 127 127
0.274110 -0.340552 -0.224679 76 153 0
0.086443 0.571156 -0.224679 76 153 0
-0.088925 -0.453649 0.242431 76 0 153
0.107346 0.215412 -0.224679 76 153 0
-0.091038 -0.250631 0.227074 76 0 153
0.351692 0.226675 0.242431 76 0 153
0.463820 -0.270350 -0.224679 76 153 0
0.290446 -0.545066 -0.224679 76 153 0
-0.486785 -0.656878 0.102517 0 127 127
-0.267033 -0.321183 0.242431 76 0 153
0.313485 0.755104 -0.245155 76 153 0
0.281746 0.794481 -0.245155 76 0 153
-0.314122 0.213946 -0.198432 0 127 127
0.480709 -0.706013 -0.148780 127 0 127
0.052588 0.400087 0.242431 76 0 153
0.350243 -0.224370 0.227074 0 0 255
0.067221 0.824107 0.026729 76 0 153
-0.013570 -0.501960 -0.207540 127 127 0
0.480709 0.564704 0.095473 127 0 127
0.496066 0.589388 0.115182 127 0 127
0.045382 -0.857994 0.124114 153 0 76
0.079846 0.193470 -0.061068 0 127 127
0.069683 0.619685 -0.229798 76 153 0
0.480709 0.628792 -0.199274 127 0 127
-0.464934 -0.878470 0.100971 153 0 76
0.033561 0.526065 -0.025010 76 153 0
-0.102903 -0.878470 -0.017486 153 0 76
-0.397447 -0.501960 -0.143161 127 127 0
0.021243 -0.150811 -0.224679 127 0 127
0.111290 0.505589 0.125542 76 153 0
-0.320426 -0.168962 0.185325 127 0 127
-0.425664 0.121846 0.242431 76 0 153
0.111376 -0.709123 0.227074 0 0 255
-0.356070 -0.011136 -0.245155 204 51 127
0.237259 0.342503 0.227074 76 0 153
-0.098780 -0.168962 0.084014 127 0 127
-0.028473 0.803631 -0.143868 76 0 153
-0.486785 -0.452351 -0.121271 0 127 127
-0.059127 0.824107 0.215617 76 0 153
-0.062398 0.135426 -0.229798 76 153 0
-0.302263 -0.522436 0.094620 127 127 0
-0.172316 -0.522436 0.038519 127 127 0
-0.471428 -0.112679 0.032606 0 127 127
-0.022778 -0.148486 -0.170957 127 0 127
0.205216 -0.878470 -0.198991 153 0 76
-0.077667 0.438581 -0.224679 76 153 0
0.496066 -0.466315 -0.243113 127 0 127
-0.441827 -0.857994 -0.201071 153 0 76
-0.486785 0.568547 0.158405 0 127 127
0.120424 0.505589 -0.132628 76 153 0
0.186345 0.748572 0.242431 76 0 153
-0.382683 0.241549 -0.224679 76 153 0
0.438092 -0.522436 -0.125724 127 127 0
0.496066 -0.851192 0.172337 127 0 127
0.208901 0.505589 -0.085124 76 153 0
0.011903 -0.878470 -0.040914 153 0 76
0.197606 0.180931 0.227074 0 255 0
-0.149604 -0.544641 0.242431 76 0 153
0.356136 0.135317 0.242431 0 0 255
0.217434 0.213946 -0.041200 0 127 127
-0.356779 -0.056588 -0.245155 76 153 0
0.029963 -0.168962 0.002971 127 0 127
0.496066 0.679925 -0.235446 127 0 127
0.480709 -0.014854 0.056185 127 0 127
0.205603 -0.168962 0.219426 127 0 127
-0.102431 0.193470 0.017575 0 127 127
-0.291548 -0.060944 -0.224679 76 153 0
0.464130 0.526065 -0.117851 76 153 0
-0.113035 -0.230014 0.242431 76 0 153
-0.471428 0.102576 -0.046461 0 127 127
-0.471428 0.753815 0.097193 0 127 127
0.424068 -0.485826 0.242431 0 0 255
0.098655 -0.256808 0.227074 0 0 255
-0.068221 0.583672 -0.229798 76 153 0
-0.280413 -0.148486 0.196474 127 0 127
-0.026658 0.448306 -0.224679 76 153 0
-0.471428 -0.404304 -0.142266 0 127 127
-0.067694 0.803631 0.036958 76 0 153
-0.082296 0.193470 -0.042223 0 127 127
-0.471428 0.578443 0.212593 76 153 0
-0.093824 -0.522436 -0.167259 127 127 0
-0.471428 0.284120 -0.075521 0 127 127
0.132486 -0.501960 0.075643 127 127 0
-0.212860 -0.168962 -0.151556 127 0 127
-0.292917 0.482143 0.227074 76 153 0
-0.221130 0.803631 0.077523 76 0 153
0.450368 0.803631 -0.109025 76 0 153
-0.272298 0.213946 0.010437 0 127 127
-0.215314 0.714061 0.242431 76 153 0
-0.136199 0.622268 -0.224679 76 153 0
-0.486785 0.487656 0.202010 0 127 127
0.389677 -0.751120 0.227074 0 0 255
-0.136930 -0.851552 0.227074 153 0 76
0.480709 -0.836011 -0.037227 127 0 127
0.289190 0.522007 0.220675 76 153 0
-0.206554 0.526065 -0.085828 76 153 0
0.386288 -0.815610 -0.229798 76 153 0
-0.167606 -0.019700 -0.224679 204 51 127
-0.295467 -0.648114 0.227074 76 0 153
-0.471428 -0.026124 0.203612 0 127 127
-0.093299 -0.818172 -0.245155 76 153 0
-0.190979 0.396456 0.242431 76 153 0
-0.486785 -0.643109 -0.104301 0 127 127
0.099525 -0.855563 -0.245155 0 0 255
-0.197476 0.234081 0.242431 76 153 0
0.375786 -0.804229 0.227074 0 0 255
-0.451809 0.526065 0.026694 76 153 0
0.371351 -0.168962 0.000424 127 0 127
0.376230 0.516286 0.242431 76 0 153
-0.446455 -0.857994 0.039139 153 0 76
-0.452893 -0.705055 -0.229798 76 153 0
0.480709 -0.564747 -0.187121 127 0 127
0.043578 0.824107 -0.231707 76 0 153
-0.314865 0.694011 -0.224679 153 0 76
0.480709 0.498723 -0.182596 76 153 0
0.403159 0.526065 0.015515 76 153 0
-0.486785 -0.749723 -0.086088 0 127 127
-0.357863 0.213946 -0.005052 0 127 127
0.055957 -0.833070 0.242431 0 0 255
0.496066 0.158082 0.088111 127 0 127
0.059092 0.213946 0.070179 0 127 127
-0.471428 0.449532 0.153875 0 127 127
0.406476 0.505589 0.212752 76 153 0
-0.436623 -0.148486 -0.201978 127 0 127
0.480709 -0.568645 0.206019 127 0 127
0.300324 -0.501960 -0.053846 127 127 0
0.480709 0.127247 0.172895 127 0 127
0.060613 -0.148486 0.039643 127 0 127
0.435410 -0.148486 0.045596 127 0 127
-0.394529 0.672514 0.242431 76 153 0
0.408770 0.770484 -0.224679 76 153 0
-0.098671 0.178549 -0.229798 76 153 0
0.203074 -0.501960 0.118319 127 127 0
0.480306 0.762410 -0.224679 127 0 127
0.107001 -0.168962 0.137764 127 0 127
0.207837 -0.878470 -0.036574 153 0 76
-0.294271 0.526065 -0.024474 76 153 0
0.141178 0.330290 -0.224679 76 153 0
0.433582 0.526065 0.186669 76 153 0
-0.023670 0.310498 0.242431 76 153 0
0.349401 -0.522436 0.101362 127 127 0
0.232293 -0.148486 -0.030457 127 0 127
0.131937 0.824107 -0.195618 76 0 153
0.496066 -0.521561 0.097796 127 0 127
0.365660 -0.522436 -0.159146 127 127 0
-0.471428 0.070212 -0.202230 0 127 127
0.279024 0.119892 0.227074 0 0 255
0.480709 -0.417875 0.054092 127 0 127
0.033559 -0.522436 0.162199 127 127 0
-0.471428 -0.650340 -0.211807 0 127 127
-0.407852 0.803631 -0.122739 76 0 153
-0.033421 0.113339 -0.229798 76 153 0
0.050439 -0.168962 0.174800 127 0 127
-0.118023 0.660666 0.227074 76 153 0
-0.390168 0.317225 0.227074 76 153 0
-0.348685 0.144000 -0.229798 76 153 0
0.293990 -0.565609 0.227074 0 0 255
0.238896 -0.857994 -0.243352 0 0 255
-0.420355 -0.655747 0.242431 76 0 153
-0.400422 -0.878470 -0.102691 153 0 76
-0.200687 -0.501960 -0.115929 127 127 0
-0.050638 -0.878470 0.101823 153 0 76
0.258812 0.213946 -0.010825 0 127 127
-0.246172 0.193470 0.063740 0 127 127
-0.116560 -0.716337 -0.224679 76 153 0
0.186978 0.526065 -0.057545 76 153 0
0.474295 0.463536 0.227074 76 0 153
0.496066 -0.151537 -0.171049 127 0 127
0.280007 0.656824 0.227074 76 0 153
0.197314 -0.522436 0.049681 127 127 0
0.299149 -0.857994 0.175431 153 0 76
-0.042594 -0.168962 0.204587 127 0 127
-0.471428 -0.531513 -0.069127 127 127 0
0.432161 -0.857994 -0.220952 153 0 76
-0.471428 0.800539 0.022115 76 0 153
-0.085518 0.213946 0.140509 0 127 127
-0.330124 0.724481 -0.224679 76 153 0
0.210239 -0.857994 -0.053836 153 0 76
-0.128620 -0.071085 0.227074 76 0 153
0.205927 0.193470 -0.098668 0 127 127
-0.374575 -0.672369 0.227074 76 0 153
0.447482 -0.857994 0.031481 153 0 76
-0.032356 -0.857994 -0.032376 153 0 76
0.480709 0.327321 -0.111730 127 0 127
0.112190 -0.522436 0.174930 127 127 0
-0.025529 -0.522436 0.208217 127 127 0
-0.335661 0.227418 -0.224679 76 153 0
0.371972 -0.141858 0.242431 0 0 255
0.292064 -0.168962 0.144014 127 0 127
-0.116790 0.129509 0.242431 76 0 153
-0.101529 0.193470 -0.130438 0 127 127
0.055893 -0.857994 -0.178230 153 0 76
-0.476052 0.221144 0.227074 0 127 127
-0.324409 0.803631 0.224169 76 0 153
0.012965 0.255190 0.242431 76 153 0
-0.092614 -0.353355 0.242431 76 0 153
0.419895 0.505589 0.102321 76 153 0
-0.017210 -0.522436 0.125718 127 127 0
0.012957 -0.168962 0.209908 127 0 127
-0.486785 -0.225833 0.209987 0 127 127
-0.112501 0.803631 0.004950 76 0 153
-0.135549 -0.507268 -0.224679 76 153 0
0.368285 -0.501960 0.000189 127 127 0
0.452138 0.094163 -0.229798 76 153 0
0.496066 -0.618095 0.076899 127 0 127
0.241444 -0.522436 -0.186310 127 127 0
0.415862 -0.501960 -0.112280 127 127 0
0.496066 -0.776036 -0.231331 127 0 127
0.213845 0.744790 -0.224679 76 153 0
0.303778 -0.148486 0.186365 127 0 127
0.027626 -0.148486 0.135281 127 0 127
0.378970 -0.857994 0.124532 153 0 76
-0.134695 -0.522436 -0.182818 127 127 0
0.474038 -0.178881 -0.229798 127 0 127
0.118695 -0.463809 0.242431 0 0 255
-0.122120 0.213946 0.163054 0 127 127
-0.138773 0.505589 -0.179484 76 153 0
-0.486785 -0.484287 0.092020 0 127 127
0.332449 -0.857994 -0.019552 153 0 76
-0.107269 -0.024283 0.227074 76 0 153
0.078933 -0.418398 -0.229798 76 153 0
0.480709 -0.391216 0.059189 127 0 127
0.314550 -0.531340 0.242431 0 0 255
0.480709 -0.079703 -0.194161 127 0 127
0.206574 0.526065 0.075829 76 153 0
0.009400 0.290994 -0.224679 76 153 0
-0.486785 -0.872569 -0.204105 0 127 127
-0.415275 -0.168378 -0.224679 76 153 0
0.346865 -0.100123 0.227074 0 0 255
-0.320124 0.824107 0.113129 76 0 153
-0.129983 -0.517405 0.220675 127 127 0
0.000653 0.526065 -0.202785 76 153 0
-0.179491 0.018287 -0.229798 76 153 0
-0.025005 0.213946 -0.007837 0 127 127
0.333564 -0.209213 -0.229798 76 153 0
0.480709 0.654616 -0.185384 127 0 127
0.029711 -0.857994 0.092486 153 0 76
0.070538 -0.522436 0.019857 127 127 0
-0.033045 -0.501960 0.042397 127 127 0
-0.340765 -0.742316 -0.224679 76 153 0
0.374214 0.526065 0.171615 76 153 0
-0.357563 0.533690 0.227074 76 153 0
0.388841 -0.148486 0.044476 127 0 127
-0.386779 0.803631 0.071128 76 0 153
-0.486785 -0.769414 0.131640 0 127 127
-0.034192 0.213946 -0.175410 0 127 127
-0.368726 -0.291914 0.227074 76 0 153
-0.486785 0.725287 -0.185638 0 127 127
-0.471428 0.239731 0.207908 0 127 127
-0.060405 -0.168962 0.083604 127 0 127
0.496066 0.262341 0.124034 127 0 127
-0.391903 -0.258152 0.227074 76 0 153
0.386170 0.793761 0.242431 76 0 153
-0.383486 -0.522436 0.219666 76 0 153
-0.014421 0.505589 0.133737 76 153 0
-0.486785 -0.339915 -0.080310 0 127 127
0.496066 -0.537807 -0.056155 127 0 127
0.195906 -0.505641 -0.229798 76 153 0
0.134672 -0.458135 -0.224679 76 153 0
-0.277771 0.213946 -0.185117 0 127 127
0.081639 0.803631 -0.153967 76 0 153
-0.434564 0.505589 0.144121 76 153 0
0.044961 -0.021052 0.270476 0 255 0
0.157662 0.530585 0.242431 76 0 153
0.152396 -0.873331 -0.245155 153 0 76
-0.212980 -0.501960 0.157675 127 127 0
-0.003041 -0.857994 -0.099806 153 0 76
-0.451124 0.824107 -0.120557 76 0 153
-0.217659 -0.501960 -0.039798 127 127 0
0.406496 -0.121305 0.227074 0 0 255
0.406099 0.824107 -0.120612 76 0 153
-0.283341 0.124727 0.227074 76 0 153
-0.486785 0.188692 0.199316 0 127 127
-0.486785 -0.823435 0.051882 0 127 127
-0.151942 0.010787 0.242431 76 0 153
-0.353483 0.024009 -0.241463 204 51 127
0.385130 -0.501960 0.031211 127 127 0
-0.170765 -0.501960 -0.022903 127 127 0
-0.408169 -0.522436 0.025064 127 127 0
-0.325233 0.753190 0.242431 76 153 0
0.278700 0.468570 0.242431 76 0 153
0.175130 0.824107 0.178397 76 0 153
0.208196 -0.168962 0.104110 127 0 127
0.077672 0.824107 -0.230600 76 0 153
0.246746 -0.501960 0.113644 127 127 0
-0.006696 -0.773871 -0.245155 76 153 0
0.169892 -0.168962 -0.157217 127 0 127
-0.086392 0.824107 -0.218674 76 0 153
-0.335224 -0.878470 -0.097561 153 0 76
-0.486785 -0.504164 0.045078 0 127 127
0.452740 0.181528 -0.224679 76 153 0
0.496066 0.746931 -0.181307 127 0 127
0.079744 -0.522436 -0.117507 127 127 0
-0.471428 -0.431037 0.096988 0 127 127
0.268852 0.213946 0.025423 0 127 127
0.297580 -0.168962 0.069655 127 0 127
0.024389 0.609049 0.242431 76 0 153
-0.246031 -0.522436 0.036568 127 127 0
-0.392862 0.505589 0.077759 76 153 0
-0.313421 -0.522436 0.173931 127 127 0
-0.276492 0.193470 -0.040827 0 127 127
-0.433960 0.505589 -0.177546 76 153 0
0.166246 -0.758953 -0.245155 76 153 0
0.083594 0.523081 0.220675 76 153 0
-0.096323 0.526065 -0.186877 76 153 0
-0.269965 0.193470 0.121946 0 127 127
0.334730 0.803631 0.080788 76 0 153
0.192535 -0.148486 0.144897 127 0 127
0.480709 -0.504665 -0.137189 127 127 0
0.247789 -0.878470 0.057442 153 0 76
0.045024 0.582916 -0.224679 76 153 0
-0.192614 0.505589 0.151455 76 153 0
-0.138746 0.193470 0.097710 0 127 127
-0.198359 0.193470 -0.047448 0 127 127
0.181344 0.505589 0.159211 76 153 0
0.496066 -0.389194 -0.169948 127 0 127
-0.094083 -0.681718 0.242431 76 0 153
0.388065 0.163362 0.227074 0 0 255
-0.195893 0.803631 0.140402 76 0 153
-0.067901 0.803631 -0.232473 76 0 153
-0.346282 -0.864325 0.242431 76 0 153
-0.207395 -0.472192 -0.224679 76 153 0
0.480709 0.160267 0.119893 127 0 127
0.290994 -0.148486 0.015317 127 0 127
-0.486785 0.152586 -0.206198 0 127 127
-0.463485 0.213946 -0.162583 0 127 127
0.496066 -0.484419 0.183791 127 0 127
-0.469121 0.642221 0.227074 76 153 0
0.368163 0.270350 -0.224679 76 153 0
-0.047086 -0.522436 -0.028393 127 127 0
0.254464 -0.857994 -0.035917 153 0 76
-0.231164 0.193470 -0.007183 0 127 127
0.373120 -0.148523 -0.229798 76 153 0
0.063871 0.203222 -0.229798 0 127 127
-0.035565 -0.168962 -0.154420 127 0 127
-0.432956 -0.503257 0.242431 76 0 153
-0.135603 -0.522436 0.032462 127 127 0
-0.244197 -0.092808 0.242431 76 0 153
-0.486785 -0.585116 0.092700 0 127 127
0.313589 0.360780 -0.224679 76 153 0
-0.471428 0.192154 0.089707 0 127 127
-0.099406 -0.531874 0.227074 127 127 0
-0.486785 0.256157 -0.083223 0 127 127
-0.356597 -0.539719 -0.229798 76 153 0
0.471225 -0.781833 0.242431 0 0 255
-0.112428 -0.522436 0.101209 127 127 0
0.496066 0.215855 0.161791 0 127 127
0.496066 -0.648166 -0.081383 127 0 127
-0.486785 -0.563948 -0.142031 0 127 127
0.022224 -0.691547 0.242431 0 0 255
-0.299048 0.824107 0.196007 76 0 153
0.047848 -0.857994 0.207793 0 0 255
-0.376089 -0.597153 -0.224679 76 153 0
0.140088 -0.026598 -0.224679 204 51 127
-0.471428 -0.193705 -0.098589 0 127 127
0.357746 -0.148486 -0.047837 127 0 127
-0.394140 0.759419 -0.245155 153 0 76
0.304261 0.213946 0.004369 0 127 127
0.320651 -0.148486 -0.069441 127 0 127
-0.173694 -0.825802 0.227074 76 0 153
0.163743 -0.501960 -0.007061 127 127 0
-0.083571 -0.857994 -0.221917 76 153 0
-0.145176 0.512445 0.220675 76 153 0
0.144873 -0.264222 -0.224679 76 153 0
-0.440020 -0.501960 -0.096728 127 127 0
0.045083 0.666728 0.242431 76 0 153
-0.423542 -0.248597 -0.229798 76 153 0
0.380164 -0.857994 -0.139880 153 0 76
0.496066 -0.701421 -0.059499 127 0 127
0.131405 0.803631 0.073655 76 0 153
0.246668 -0.168962 -0.072998 127 0 127
-0.121721 -0.148486 0.001595 127 0 127
-0.471428 -0.384705 0.150876 0 127 127
-0.354632 0.796377 -0.245155 76 0 153
-0.411286 0.797289 -0.245155 153 0 76
-0.329811 -0.798734 0.227074 76 0 153
-0.468259 0.803631 0.155622 0 127 127
0.138187 0.193470 0.073902 0 127 127
0.331008 0.505589 -0.200421 76 153 0
-0.416057 -0.022222 -0.245155 204 51 127
-0.073251 -0.501358 0.227074 127 127 0
0.054398 0.138860 0.242431 0 0 255
0.244487 -0.441343 0.227074 0 0 255
-0.467080 -0.680754 -0.229798 76 153 0
0.481198 -0.573342 -0.245155 127 0 127
0.215538 0.270081 0.242431 76 0 153
-0.436111 -0.168962 -0.129726 127 0 127
0.396678 -0.501960 -0.132865 127 127 0
-0.346969 -0.878470 0.012311 153 0 76
0.480709 0.513982 -0.083237 76 153 0
-0.354862 0.482686 0.227074 76 153 0
-0.464603 0.824107 0.188118 76 0 153
-0.024744 -0.878470 -0.048181 153 0 76
-0.006596 -0.522436 -0.002589 127 127 0
-0.005100 0.824107 0.217549 76 0 153
-0.089731 0.824107 0.179464 76 0 153
-0.239763 -0.522436 0.194422 127 127 0
-0.295780 -0.501960 0.172136 127 127 0
0.343028 0.505589 0.106949 76 153 0
0.242644 0.681071 0.227074 76 0 153
0.305571 0.193470 0.169107 0 127 127
-0.471428 0.704909 -0.054043 0 127 127
-0.288525 -0.288458 -0.224679 76 153 0
-0.361179 -0.150632 0.220675 127 0 127
-0.486785 -0.171088 0.204549 0 127 127
0.496066 0.626931 -0.058180 127 0 127
0.222983 -0.148486 0.084835 127 0 127
-0.445949 0.687257 0.227074 76 153 0
-0.447803 -0.501960 -0.011851 127 127 0
0.358600 0.816945 0.225794 76 0 153
-0.230005 -0.878470 0.154173 153 0 76
0.135815 -0.501960 -0.095773 127 127 0
0.273202 -0.058356 -0.224679 76 153 0
0.112038 -0.638844 0.242431 0 0 255
-0.410474 0.430921 -0.229798 76 153 0
-0.380299 0.213946 -0.177102 0 127 127
0.207762 0.824107 0.185934 76 0 153
-0.242378 -0.767867 0.227074 76 0 153
-0.385008 -0.522436 -0.084774 127 127 0
0.496066 0.334371 -0.158440 127 0 127
0.078007 -0.522436 -0.201072 127 127 0
-0.288616 -0.522436 -0.139339 127 127 0
0.470950 0.526065 -0.187057 76 153 0
0.200479 0.800633 0.227074 76 0 153
-0.486785 -0.217787 -0.218141 0 127 127
0.194197 0.193470 0.032644 0 127 127
0.111143 -0.683821 0.242431 0 0 255
-0.446043 -0.522436 0.091378 127 127 0
-0.150932 0.526065 0.100623 76 153 0
-0.085740 -0.501960 0.144899 127 127 0
0.108217 0.803631 -0.029513 76 0 153
0.359835 0.824107 -0.088454 76 0 153
-0.471428 0.545515 -0.041970 0 127 127
-0.486785 0.402932 0.202591 0 127 127
-0.298378 -0.878470 0.040199 153 0 76
0.207142 0.296468 0.227074 76 0 153
-0.271054 -0.878470 -0.179375 153 0 76
-0.358274 -0.148486 -0.046880 127 0 127
0.347764 0.193470 -0.182673 0 127 127
-0.341115 -0.148486 -0.090149 127 0 127
-0.094034 0.213946 -0.202976 0 127 127
-0.185041 -0.438914 0.227074 76 0 153
-0.135872 -0.522436 -0.138967 127 127 0
-0.353355 0.213946 -0.156836 0 127 127
-0.338351 0.124819 0.227074 76 0 153
0.473080 0.213946 -0.080190 0 127 127
0.410814 -0.875910 0.235019 0 0 255
-0.085250 0.824107 0.039616 76 0 153
-0.034677 -0.148486 -0.026616 127 0 127
-0.486785 -0.647116 0.161879 0 127 127
-0.007236 -0.022976 -0.224679 204 51 127
0.251015 -0.601734 -0.229798 76 153 0
0.070759 0.063156 -0.224679 76 153 0
0.436207 -0.168962 -0.042846 127 0 127
-0.311387 -0.475095 0.242431 76 0 153
-0.486785 0.618824 0.161338 0 127 127
0.073786 0.175391 0.227074 0 0 255
0.496066 -0.839722 0.017631 127 0 127
-0.033399 -0.365925 0.242431 76 0 153
0.206025 -0.168962 0.170382 127 0 127
-0.060206 -0.857994 0.214277 153 0 76
-0.122917 0.726117 -0.229798 76 153 0
-0.236791 -0.668138 0.242431 76 0 153
-0.044323 0.824107 -0.039302 76 0 153
0.365064 -0.878470 0.079147 153 0 76
-0.227651 0.505589 0.067319 76 153 0
-0.486785 -0.779049 0.065392 0 127 127
0.063811 0.627086 0.242431 76 0 153
-0.213329 0.526065 0.003929 76 153 0
-0.213543 -0.010840 0.242431 76 0 153
-0.471428 -0.297652 0.110183 0 127 127
-0.088370 0.803631 -0.049320 76 0 153
-0.231988 -0.878470 -0.046535 153 0 76
-0.040748 -0.241100 -0.229798 76 153 0
-0.055092 0.213946 -0.012771 0 127 127
-0.319198 0.213946 0.125078 0 127 127
-0.076714 0.731080 -0.229798 153 0 76
-0.471428 -0.492126 -0.107458 127 127 0
0.383176 0.342439 0.242431 76 0 153
-0.454836 0.250966 0.242431 76 153 0
-0.411028 -0.878470 0.076401 153 0 76
0.186773 -0.131735 0.227074 0 0 255
0.368128 0.505589 0.039531 76 153 0
0.001518 0.193470 0.172478 0 127 127
-0.067595 0.193470 -0.142959 0 127 127
0.283505 -0.681473 -0.224679 76 153 0
-0.471428 0.599609 0.001155 0 127 127
0.496066 -0.370900 -0.220923 127 0 127
0.188725 0.193470 -0.068802 0 127 127
0.020793 0.306437 0.227074 76 0 153
0.023523 -0.148486 0.019934 127 0 127
0.092348 -0.857994 -0.049434 153 0 76
0.227092 -0.306003 -0.229798 76 153 0
0.386356 -0.845358 -0.224679 76 153 0
0.247275 0.803631 0.030511 76 0 153
-0.444174 -0.168962 -0.163645 127 0 127
0.465642 -0.433561 0.242431 0 0 255
-0.013653 0.025093 0.227074 76 0 153
-0.486785 0.595995 0.024809 0 127 127
0.040268 0.193470 -0.097294 0 127 127
0.376779 0.803631 -0.181032 76 0 153
0.107827 -0.405783 -0.229798 76 153 0
0.147817 0.526065 -0.184929 76 153 0
0.444577 0.471627 0.227074 76 0 153
0.277788 -0.857994 0.036113 153 0 76
0.411397 0.293365 -0.224679 76 153 0
0.024859 -0.746912 -0.229798 76 153 0
-0.409906 0.526065 -0.172134 76 153 0
0.369633 0.771886 0.227074 76 0 153
0.476182 0.643062 -0.224679 76 153 0
0.048604 -0.148486 -0.207755 127 0 127
0.042059 0.526065 -0.213138 76 153 0
0.382874 -0.857994 -0.035739 153 0 76
0.312681 -0.870672 0.242431 0 0 255
0.112689 0.824107 0.164878 76 0 153
0.496066 -0.648870 0.103079 127 0 127
-0.471428 0.347454 -0.119223 0 127 127
0.391125 -0.404098 0.227074 0 0 255
-0.464488 -0.178247 0.227074 127 0 127
0.370100 0.658454 0.227074 76 0 153
-0.276233 -0.380194 -0.229798 76 153 0
-0.283990 0.803631 -0.228454 76 0 153
0.434377 0.505589 -0.069176 76 153 0
-0.042651 -0.031303 -0.245155 204 51 127
0.075320 0.671069 -0.224679 76 153 0
0.121179 -0.097986 -0.224679 76 153 0
0.480709 -0.401115 -0.035890 127 0 127
0.376678 -0.878470 0.217010 255 0 0
0.098982 -0.371467 0.242431 0 0 255
-0.461116 0.274355 -0.224679 76 153 0
0.496066 0.313776 -0.000732 127 0 127
0.433121 -0.795540 -0.245155 0 0 255
-0.341867 0.526065 0.103024 76 153 0
0.096259 -0.286801 -0.229798 76 153 0
-0.281915 -0.501960 0.014027 127 127 0
0.080480 -0.078372 -0.241156 76 153 0
-0.360733 -0.717353 0.242431 76 0 153
-0.471428 -0.374918 0.217352 0 127 127
0.496066 -0.574155 0.060352 127 0 127
-0.486785 0.603406 -0.046943 0 127 127
-0.419771 0.824107 0.044855 76 0 153
-0.272821 0.019620 -0.245155 204 51 127
0.496066 0.610287 0.179469 127 0 127
0.349507 -0.097200 -0.224679 76 153 0
-0.180592 0.783459 -0.245155 153 0 76
0.496066 -0.430442 -0.001434 127 0 127
0.062190 -0.727800 -0.229798 76 153 0
0.457503 0.193470 -0.190182 0 127 127
-0.486785 0.466493 -0.093255 0 127 127
-0.094543 0.297940 0.242431 76 153 0
-0.054041 -0.258433 0.242431 76 0 153
0.355329 0.213946 -0.069748 0 127 127
0.480709 -0.122284 -0.023322 127 0 127
0.480709 -0.190850 0.096090 127 0 127
0.122515 0.499683 0.242431 76 0 153
-0.000505 -0.740836 0.227074 0 0 255
-0.328972 -0.038093 0.227074 76 0 153
0.109276 -0.031409 0.227074 0 0 255
-0.387020 -0.322221 0.242431 76 0 153
-0.159611 0.213946 -0.216138 0 127 127
0.472311 0.234836 0.242431 76 0 153
-0.486785 -0.450156 -0.054548 0 127 127
-0.192798 0.607272 0.242431 76 153 0
-0.241823 -0.374385 -0.229798 76 153 0
-0.323692 0.705466 0.227074 76 153 0
0.338970 0.603744 -0.229798 76 153 0
0.146783 -0.878470 -0.193492 153 0 76
-0.205312 0.801610 0.242431 76 153 0
-0.191590 0.803631 0.019090 76 0 153
-0.121291 -0.841992 -0.224679 76 153 0
-0.010298 0.803631 0.202111 76 0 153
-0.089647 -0.501960 0.101482 127 127 0
-0.062808 -0.034684 -0.224679 76 153 0
0.133708 0.526065 0.092889 76 153 0
0.480709 0.234634 -0.219180 127 0 127
0.395298 -0.022442 -0.245155 204 51 127
0.054898 0.193470 -0.167471 0 127 127
0.426200 0.735881 -0.224679 76 153 0
-0.354032 -0.857994 -0.077296 153 0 76
0.496066 0.528629 -0.000743 127 0 127
0.255740 -0.605916 0.242431 0 0 255
0.496066 0.181929 -0.050214 127 0 127
0.213585 -0.168962 -0.172544 127 0 127
0.458305 0.425383 0.242431 76 0 153
0.113061 -0.501960 0.135182 127 127 0
-0.246868 0.465172 -0.224679 76 153 0
0.363942 -0.492508 0.242431 0 0 255
0.142734 0.193470 -0.096098 0 127 127
-0.409025 0.824107 -0.016111 76 0 153
0.309256 0.526065 -0.050678 76 153 0
0.194979 -0.780448 0.242431 0 0 255
-0.267313 0.803631 0.131747 76 0 153
-0.314472 -0.522436 0.141382 127 127 0
0.312909 -0.522436 -0.153735 127 127 0
0.412672 0.526065 0.053149 76 153 0
0.442648 0.667857 0.227074 76 0 153
0.227505 -0.340758 0.227074 0 0 255
-0.437839 -0.857994 -0.020719 153 0 76
0.473595 -0.148486 -0.046751 127 0 127
-0.261027 0.505589 -0.104526 76 153 0
-0.486785 -0.798073 -0.192094 0 127 127
0.110492 0.803631 -0.097617 76 0 153
0.233455 0.766999 -0.224679 76 153 0
0.361178 -0.168962 0.138298 127 0 127
0.303030 -0.878470 -0.175003 153 0 76
-0.486785 -0.395238 -0.120534 0 127 127
-0.486785 -0.559849 0.030849 0 127 127
0.279809 -0.501960 0.115817 127 127 0
-0.420275 0.193470 -0.138273 0 127 127
0.368935 -0.878470 -0.180087 153 0 76
0.296323 -0.613277 0.227074 0 0 255
0.396418 0.481277 0.227074 76 0 153
0.027629 0.803631 -0.110478 76 0 153
-0.427546 -0.512600 -0.229798 76 153 0
0.433688 0.788584 -0.245155 76 0 153
0.255234 0.803631 -0.031591 76 0 153
-0.423398 0.505589 -0.210692 76 153 0
-0.258847 -0.142793 0.242431 76 0 153
0.259874 -0.148486 0.156103 127 0 127
-0.484969 0.345454 0.225794 0 127 127
0.496066 -0.267891 0.127570 127 0 127
-0.321944 0.803631 -0.004549 76 0 153
-0.486785 -0.425708 0.056628 0 127 127
-0.307481 -0.878470 -0.101792 153 0 76
-0.082457 0.803631 -0.076103 76 0 153
-0.441971 -0.800649 -0.224679 76 153 0
0.149703 -0.684914 -0.229798 76 153 0
-0.471428 -0.567353 -0.052173 0 127 127
0.377223 0.803631 0.211557 76 0 153
-0.235620 0.761687 0.242431 76 153 0
-0.162525 -0.072316 -0.245155 76 153 0
0.480709 0.602544 -0.192579 127 0 127
0.480709 -0.110531 0.003376 127 0 127
-0.204287 -0.522436 -0.053432 127 127 0
-0.178507 0.803631 -0.137238 76 0 153
-0.449215 -0.564176 -0.229798 76 153 0
-0.168667 -0.857994 0.017114 153 0 76
-0.486785 0.545325 0.175059 0 127 127
-0.246846 -0.168962 0.212784 127 0 127
-0.471428 0.417408 0.027472 0 127 127
-0.486785 -0.149770 -0.219179 0 127 127
0.284189 0.213946 -0.135327 0 127 127
-0.471428 -0.123486 0.082872 0 127 127
-0.458575 -0.644289 0.242431 76 0 153
0.201010 -0.501960 -0.123728 127 127 0
-0.471428 -0.157463 0.005519 0 127 127
-0.297860 -0.501960 0.077483 127 127 0
-0.471428 0.150931 0.004160 0 127 127
0.113130 -0.395980 0.242431 0 0 255
0.480709 0.009442 -0.042413 127 0 127
0.342334 -0.522436 -0.084758 127 127 0
0.039832 0.480961 0.242431 76 0 153
0.400952 0.127131 0.242431 0 0 255
-0.007224 0.401361 -0.224679 76 153 0
0.416395 -0.501960 0.204949 127 127 0
0.480709 0.801169 -0.190325 76 0 153
0.033469 -0.522436 0.194375 127 127 0
-0.326032 0.526065 -0.014795 76 153 0
0.480709 -0.790986 0.013786 127 0 127
-0.394893 -0.471852 0.227074 76 0 153
-0.279699 -0.794722 0.227074 76 0 153
-0.397416 -0.148486 -0.113664 127 0 127
0.420663 0.077913 -0.229798 76 153 0
0.282036 -0.878470 -0.239590 153 0 76
0.021654 0.228643 0.242431 76 0 153
0.109857 0.803631 0.101441 76 0 153
-0.114430 0.505589 0.084479 76 153 0
-0.267878 0.526065 0.019509 76 153 0
-0.371905 -0.730941 -0.224679 76 153 0
0.443611 0.609042 0.242431 76 0 153
-0.345319 -0.629006 -0.229798 76 153 0
-0.486785 0.743812 -0.131565 0 127 127
-0.486785 -0.194309 -0.076577 0 127 127
-0.391648 -0.878470 -0.025127 153 0 76
-0.471428 0.447208 0.070874 0 127 127
-0.486785 0.352134 0.029917 0 127 127
0.480709 0.301475 0.078260 127 0 127
-0.458466 -0.148486 -0.185588 127 0 127
0.404330 0.526065 -0.058520 76 153 0
0.390690 -0.646862 0.242431 0 0 255
-0.310695 -0.765295 -0.229798 76 153 0
-0.459378 0.213946 -0.101316 0 127 127
0.210903 -0.874448 0.242431 0 0 255
0.027889 0.444785 0.227074 76 0 153
-0.086115 0.363414 0.227074 76 153 0
-0.221338 -0.435172 0.242431 76 0 153
-0.176346 0.803631 0.067628 76 0 153
0.346775 -0.620213 -0.224679 76 153 0
-0.128154 0.083780 0.242431 76 0 153
0.238382 0.193470 -0.132459 0 127 127
0.200441 -0.727443 -0.224679 76 153 0
0.185406 -0.857994 0.167731 153 0 76
0.280660 -0.701469 0.227074 0 0 255
-0.471428 0.137461 -0.163383 0 127 127
-0.181876 0.506455 -0.224679 76 153 0
0.212583 0.487317 0.227074 76 0 153
-0.373451 0.153888 -0.229798 76 153 0
-0.220097 -0.066162 0.227074 76 0 153
0.466801 0.803631 0.203215 76 0 153
0.496066 -0.578733 -0.155626 127 0 127
0.168820 -0.168962 0.012982 127 0 127
0.480709 -0.851872 0.095033 127 0 127
-0.359581 -0.522436 0.010489 127 127 0
0.167798 0.526065 0.150606 76 153 0
-0.245464 -0.857994 0.076321 153 0 76
0.348695 -0.431817 -0.229798 76 153 0
-0.351673 -0.432597 0.227074 76 0 153
-0.059425 -0.087590 -0.229798 76 153 0
-0.435561 0.193470 0.214110 0 127 127
0.079757 -0.168962 0.050990 127 0 127
-0.454360 0.803631 0.099385 76 0 153
-0.424822 0.353770 0.242431 76 153 0
0.056196 0.714324 -0.245155 153 0 76
-0.308385 0.768153 -0.229798 76 153 0
0.480709 0.564974 0.207779 127 0 127
-0.278241 0.788464 0.227074 76 153 0
-0.323409 -0.168962 -0.120569 127 0 127
0.496066 -0.438211 0.181764 127 0 127
-0.178145 -0.383901 -0.229798 76 153 0
0.432295 0.716766 0.242431 76 0 153
-0.001583 0.213946 0.217191 0 127 127
0.202864 -0.148486 0.119813 127 0 127
-0.471428 -0.455913 0.117412 0 127 127
-0.328696 -0.097137 0.242431 76 0 153
0.246235 -0.857994 -0.171856 153 0 76
-0.109605 -0.857994 -0.069080 153 0 76
-0.486785 0.278544 0.107603 0 127 127
-0.173443 -0.205496 0.242431 76 0 153
0.292776 -0.852010 -0.245155 153 0 76
-0.486785 0.028443 -0.182550 0 127 127
-0.486785 -0.330997 0.042302 0 127 127
-0.486785 -0.432663 -0.190866 0 127 127
0.082979 -0.501960 0.009976 127 127 0
-0.251062 -0.522436 0.003483 127 127 0
-0.008613 0.824107 -0.189705 76 0 153
-0.471428 0.767404 0.173746 0 127 127
0.370972 -0.527803 -0.224679 76 153 0
-0.297060 -0.148486 0.146080 127 0 127
-0.072051 0.824107 0.112552 76 0 153
0.145497 0.038304 0.227074 0 0 255
0.480709 0.584818 -0.016885 127 0 127
-0.157165 0.065358 -0.229798 76 153 0
0.099372 0.526065 0.007243 76 153 0
-0.471428 -0.044302 -0.188088 0 127 127
-0.301874 0.164116 0.227074 76 0 153
0.092453 0.193470 -0.163737 0 127 127
-0.204458 0.570961 -0.229798 76 153 0
-0.471428 0.196263 -0.179917 0 127 127
-0.154372 0.824107 0.103864 76 0 153
0.250980 -0.772410 -0.245155 0 0 255
0.375210 0.824107 -0.221166 76 0 153
-0.454772 -0.354239 -0.224679 76 153 0
0.172173 0.193470 0.162624 0 127 127
0.460097 0.824107 0.018618 76 0 153
-0.260462 -0.878470 -0.106934 153 0 76
-0.011162 -0.272952 -0.229798 76 153 0
0.496066 -0.122693 -0.099088 127 0 127
0.318914 0.396767 -0.224679 76 153 0
0.486888 0.331940 0.242431 76 0 153
-0.430775 0.480263 -0.229798 76 153 0
-0.314406 -0.131837 0.242431 76 0 153
0.108790 0.526065 0.201189 76 153 0
-0.022242 -0.857994 0.179042 153 0 76
0.073965 -0.168962 0.082561 127 0 127
0.143401 0.505589 0.124717 76 153 0
-0.310216 -0.857994 0.168987 153 0 76
-0.169486 0.244349 -0.229798 76 153 0
-0.471428 -0.584283 -0.107037 0 127 127
-0.378695 -0.023271 -0.224679 204 51 127
-0.327748 0.505589 0.218805 76 153 0
-0.341977 -0.878470 -0.233713 153 0 76
-0.291292 0.613750 -0.224679 76 153 0
-0.242135 -0.845277 0.227074 76 0 153
-0.344045 -0.501960 0.090591 127 127 0
0.480709 0.255132 -0.200559 127 0 127
0.405040 0.803631 -0.172913 76 0 153
0.226383 0.824107 -0.022431 76 0 153
0.496066 -0.405317 -0.066006 127 0 127
-0.063836 0.014697 -0.245155 204 51 127
-0.486785 -0.091434 0.075319 0 127 127
0.229581 -0.689929 0.227074 0 0 255
-0.049977 0.475985 0.242431 76 153 0
0.110475 0.062951 -0.224679 76 153 0
0.496066 -0.877260 0.221266 0 0 255
0.436228 0.343659 0.242431 76 0 153
-0.029315 -0.163112 0.242431 76 0 153
-0.486785 0.408332 -0.181699 0 127 127
0.257777 0.695387 -0.229798 76 153 0
0.126877 -0.522436 0.144918 127 127 0
-0.391805 0.824107 0.030612 76 0 153
-0.461049 -0.235094 0.227074 76 0 153
0.442248 -0.558643 0.227074 0 0 255
-0.470208 0.097118 0.242431 76 0 153
-0.255960 0.803631 -0.141120 76 0 153
0.310307 0.193470 0.035126 0 127 127
0.480709 0.532479 0.190458 76 153 0
0.325302 -0.168962 0.142034 127 0 127
0.004804 -0.522436 -0.215485 76 153 0
0.496066 0.448215 -0.231313 127 0 127
0.426146 -0.261630 -0.224679 76 153 0
0.496066 0.104597 0.112256 127 0 127
0.481777 0.781835 0.225794 76 0 153
-0.486785 -0.658405 -0.023795 0 127 127
-0.028189 -0.878470 0.080666 153 0 76
0.277476 0.468014 -0.229798 76 153 0
0.108323 0.644313 0.227074 76 0 153
-0.159714 0.170295 0.227074 76 0 153
0.480709 0.047409 -0.142910 127 0 127
0.496066 -0.408751 -0.203825 127 0 127
-0.353431 -0.099042 -0.229798 76 153 0
0.415581 0.803631 -0.148387 76 0 153
-0.133396 -0.857994 0.055103 153 0 76
0.480709 0.017698 -0.172038 127 0 127
0.210574 0.006429 0.227074 0 0 255
-0.147253 0.526065 -0.208226 76 153 0
0.361886 0.733768 -0.224679 153 0 76
0.285850 0.652969 -0.229798 76 153 0
0.390439 0.193470 -0.165826 0 127 127
0.480709 -0.345215 -0.019405 127 0 127
-0.471428 0.442751 -0.135440 0 127 127
0.424059 -0.171007 0.242431 0 0 255
-0.255140 0.526065 0.054495 76 153 0
0.067340 0.505589 0.055752 76 153 0
0.249146 0.526065 0.155196 76 153 0
0.321054 -0.325244 -0.229798 76 153 0
-0.471428 0.013996 -0.088955 0 127 127
0.252590 0.505589 0.009317 76 153 0
0.184369 -0.148486 0.020077 127 0 127
0.015505 0.623225 -0.224679 76 153 0
0.208559 0.526065 0.005490 76 153 0
0.391282 -0.878470 0.000077 153 0 76
-0.335416 -0.501960 0.129668 127 127 0
0.401142 0.372943 0.227074 76 0 153
-0.222182 -0.104559 0.227074 76 0 153
-0.449335 -0.148486 -0.038524 127 0 127
0.142763 0.645174 -0.224679 76 153 0
0.480709 -0.835459 0.144006 127 0 127
0.276950 0.213946 0.131538 0 127 127
0.285922 0.193470 0.195008 0 127 127
-0.471428 -0.858850 0.016985 0 127 127
0.480709 -0.779753 -0.153837 127 0 127
0.046113 0.526065 -0.177398 76 153 0
-0.415240 0.213946 -0.045655 0 127 127
-0.471428 -0.583069 -0.150583 0 127 127
-0.098390 -0.519954 -0.224679 76 153 0
0.480709 0.385379 -0.050770 127 0 127
0.480709 -0.544330 -0.121919 127 127 0
0.320608 -0.168962 -0.126809 127 0 127
-0.170761 -0.168962 0.006737 127 0 127
-0.486785 0.506884 -0.055445 0 127 127
-0.400719 0.088377 0.227074 76 0 153
-0.053832 -0.857994 -0.169066 153 0 76
-0.130230 -0.799066 -0.245155 0 0 255
-0.390274 -0.687338 0.242431 76 0 153
0.342492 -0.501960 0.216237 0 0 255
-0.471428 -0.196554 0.089749 0 127 127
-0.486785 0.064714 -0.127457 0 127 127
0.430893 -0.501960 -0.083454 127 127 0
0.400907 0.330823 -0.224679 76 153 0
0.480709 0.694082 -0.176211 127 0 127
-0.471428 -0.337890 -0.027150 0 127 127
-0.364520 -0.168962 -0.185518 127 0 127
0.160527 0.213946 0.199998 0 127 127
-0.397468 0.199383 -0.222120 0 127 127
-0.000979 0.505589 0.188238 76 153 0
0.334587 -0.148486 0.158674 127 0 127
-0.061371 0.010450 0.242431 76 0 153
-0.446561 0.526065 -0.103696 76 153 0
-0.117627 0.505589 -0.073515 76 153 0
0.014863 0.213946 0.114612 0 127 127
-0.486785 -0.730984 -0.105065 0 127 127
