ply
format ascii 1.0
element vertex 1264
property float x
property float y
property float z
property uchar red
property uchar green
property uchar blue
end_header
-0.338898 -0.217829 0.432346 127 127 0
-0.309949 0.335506 0.405380 127 0 127
-0.348316 0.540241 0.378414 0 0 255
0.263634 -0.038814 0.432346 0 127 127
0.135650 -0.241255 0.423649 0 127 127
0.228637 0.186093 -0.430577 76 153 0
-0.707359 -0.164641 -0.269307 0 127 127
0.676914 -0.640280 -0.441082 76 0 153
-0.689382 0.098487 0.343310 76 0 153
0.580284 0.418701 0.193693 0 0 255
0.063429 0.403199 -0.166459 204 51 127
0.400187 0.447603 0.378414 153 0 76
0.477798 0.391771 -0.088809 0 255 0
0.676914 0.082168 0.300335 0 127 127
-0.689382 -0.177123 -0.343140 0 127 127
-0.707359 0.057803 -0.078724 0 127 127
-0.707359 0.484901 -0.037161 0 127 127
-0.707359 -0.239359 0.007649 0 127 127
-0.621810 0.537839 -0.312220 0 255 0
-0.024259 0.120378 0.405380 153 76 0
-0.689382 0.000775 0.118055 0 127 127
-0.247300 0.402738 0.405380 127 0 127
-0.527124 0.196406 0.418745 127 127 0
-0.087862 -0.468905 -0.223086 153 0 76
0.457515 -0.077893 -0.407958 76 0 153
-0.148040 -0.572678 -0.457543 153 0 76
0.639185 0.019494 -0.417094 76 153 0
0.289342 -0.592298 -0.457543 153 0 76
-0.424760 0.227817 0.432319 127 127 0
0.048652 0.147413 -0.430577 76 153 0
0.406116 -0.104859 0.322394 76 0 153
0.404789 -0.468905 -0.369567 153 0 76
-0.293268 -0.045715 -0.417094 76 153 0
-0.162655 -0.468905 -0.201225 153 0 76
-0.095879 0.384626 -0.313723 76 153 0
-0.144690 0.391771 0.305429 76 0 153
-0.392243 -0.077893 0.047510 76 0 153
0.517971 -0.104859 -0.351960 76 0 153
0.543646 -0.468905 0.013264 153 0 76
-0.453039 -0.077893 -0.297421 76 0 153
-0.531522 -0.240543 0.409758 127 127 0
-0.201110 0.546099 0.405380 0 0 255
-0.640876 0.519862 0.218394 0 255 0
0.599852 0.537839 -0.079263 255 0 0
0.676914 -0.055000 -0.161977 127 0 127
-0.507315 -0.104859 -0.329472 76 0 153
0.676914 0.101164 -0.177449 127 0 127
0.676914 0.327450 0.353528 0 127 127
-0.707359 0.442350 0.097355 0 127 127
0.305902 -0.077893 -0.289928 76 0 153
-0.707359 0.344442 -0.416929 0 127 127
0.201302 -0.104859 -0.255451 76 0 153
-0.061038 -0.077893 -0.277662 76 0 153
0.341208 -0.077893 -0.135562 76 0 153
-0.596868 0.003988 -0.417094 76 153 0
-0.004110 -0.211584 0.378414 153 76 0
0.139652 -0.104859 -0.049278 76 0 153
-0.099379 0.560897 -0.430577 127 127 0
-0.610730 0.420086 0.033539 0 127 127
0.388736 -0.638183 0.293020 153 76 0
-0.394804 0.434151 0.378414 127 0 127
-0.689382 0.375171 -0.259555 0 127 127
0.653670 0.537839 -0.076522 255 0 0
0.278036 0.391771 -0.169065 0 255 0
0.676914 -0.023747 -0.063057 127 0 127
0.161964 -0.077893 0.279436 76 0 153
0.237919 -0.124694 0.409758 0 127 127
-0.624112 0.373794 -0.301533 0 127 127
0.676914 -0.172872 -0.187695 127 0 127
0.295554 0.089311 0.432346 0 127 127
0.170105 -0.468905 -0.349124 153 0 76
0.090557 -0.128417 0.405353 0 127 127
0.034614 -0.468905 -0.229424 153 0 76
0.471481 -0.020754 -0.430577 76 153 0
-0.631268 -0.104859 0.174151 76 0 153
0.127441 0.475820 -0.286757 255 0 0
0.684454 0.306296 0.405380 127 0 127
0.461464 -0.085960 0.409758 0 127 127
0.556940 -0.430629 0.405353 0 127 127
0.276469 0.145439 -0.430577 76 153 0
-0.632917 -0.373616 0.432319 127 127 0
0.368314 0.371345 0.422250 153 0 76
0.658936 0.175858 0.095009 127 0 127
0.524392 -0.077893 -0.136122 76 0 153
0.388016 -0.077893 -0.031046 76 0 153
-0.527143 -0.104859 0.372721 76 0 153
-0.689382 0.249873 0.271452 0 127 127
0.309633 0.100121 -0.417094 76 153 0
0.480613 -0.175004 -0.430577 76 153 0
0.560547 0.106212 -0.430577 76 153 0
-0.701165 -0.306771 0.378414 76 0 153
0.494590 0.454205 0.423131 153 0 76
0.539777 -0.086161 0.378414 76 0 153
-0.689382 -0.454143 -0.055483 0 127 127
0.331313 -0.104859 -0.238684 76 0 153
-0.588070 -0.168022 -0.430577 76 153 0
-0.623937 0.481659 0.262927 0 127 127
0.144103 -0.077893 0.345547 76 0 153
0.676914 0.222893 0.237872 127 0 127
-0.094897 0.453932 0.405380 76 153 0
0.434643 0.148330 -0.417094 76 153 0
-0.295858 0.216774 0.405353 127 127 0
0.658936 0.266841 -0.118286 127 0 127
-0.394497 -0.104859 0.113680 76 0 153
-0.283616 0.307598 0.405380 204 51 127
0.676914 -0.632958 -0.365520 76 0 153
0.676914 0.342462 -0.155068 127 0 127
-0.133591 0.478266 0.405380 127 0 127
-0.707359 0.116180 -0.034644 0 127 127
0.676914 0.350260 -0.261432 127 0 127
-0.261038 0.474379 -0.417094 76 153 0
0.496918 0.319640 -0.417094 76 153 0
-0.219460 -0.468905 0.067425 153 0 76
0.090395 0.470204 -0.239192 204 51 127
-0.611450 0.230324 0.405353 127 127 0
-0.477497 -0.077893 -0.256048 76 0 153
-0.204346 -0.286672 -0.417094 76 153 0
-0.707359 -0.421462 -0.308985 0 127 127
-0.085475 0.362551 0.405380 127 0 127
0.457211 -0.104859 -0.159501 76 0 153
0.346089 0.286015 0.405380 204 51 127
0.645847 -0.104859 0.092249 76 0 153
0.590954 0.148239 -0.417094 76 153 0
-0.292064 -0.077893 0.053692 76 0 153
0.658399 -0.104859 0.238780 76 0 153
-0.169861 -0.468905 0.152786 153 0 76
-0.496675 -0.104859 0.158411 76 0 153
-0.287516 0.524446 0.405380 127 0 127
0.497181 -0.077893 0.242168 76 0 153
0.631970 0.278525 0.391917 127 0 127
0.676914 -0.566399 -0.421972 76 0 153
0.472198 -0.104859 -0.291585 76 0 153
0.607251 0.441453 -0.104077 0 0 255
-0.707359 0.050428 -0.340139 0 127 127
0.338188 -0.085586 0.378414 76 0 153
0.195321 0.398513 -0.074922 0 255 0
0.580284 0.481536 -0.003701 0 0 255
0.658936 -0.070864 0.012633 127 0 127
-0.665041 -0.485003 -0.457543 153 0 76
-0.707359 0.133689 -0.124581 0 127 127
-0.297162 -0.144168 0.409758 127 127 0
0.138411 -0.468905 -0.012020 153 0 76
0.128938 0.333246 -0.430577 76 153 0
0.173950 0.101166 0.432346 0 127 127
0.604238 -0.077893 0.182390 76 0 153
0.639877 0.447267 0.378414 127 0 127
0.567119 -0.319856 -0.430577 76 153 0
-0.707359 0.020756 0.036303 0 127 127
-0.707359 0.400088 -0.437047 0 127 127
-0.417592 -0.104859 -0.085471 76 0 153
-0.556252 -0.468905 0.148543 153 0 76
-0.707359 -0.589845 -0.050166 76 0 153
0.532771 -0.468905 0.147784 153 0 76
0.289414 -0.077893 0.010736 76 0 153
-0.066621 -0.181829 -0.430577 76 153 0
-0.314432 -0.077893 0.290112 76 0 153
0.063429 0.437994 -0.069533 204 51 127
0.330638 0.455759 0.378414 153 0 76
0.288527 0.473236 -0.313723 255 0 0
0.658936 0.176080 -0.224028 127 0 127
-0.048727 0.210129 -0.430577 76 153 0
0.090395 0.467613 -0.160718 204 51 127
0.409528 0.402663 0.432326 153 0 76
-0.689382 -0.224163 0.182806 0 127 127
0.092441 -0.391080 0.405353 0 127 127
-0.224217 -0.359481 -0.430577 76 153 0
0.391433 0.398513 -0.020413 0 255 0
0.437536 -0.077893 0.108588 76 0 153
-0.086886 -0.408877 0.405353 127 127 0
0.042759 -0.507612 0.378414 153 0 76
0.595590 0.302429 0.405380 204 51 127
-0.689382 0.299345 -0.027546 0 127 127
-0.422458 0.487541 -0.417094 76 153 0
-0.707359 0.265385 -0.083020 0 127 127
-0.290088 0.001499 -0.417094 76 153 0
-0.316527 -0.104859 0.222994 76 0 153
0.209546 -0.149805 -0.417094 76 153 0
-0.637696 0.391979 0.391098 0 127 127
0.676914 0.198406 0.298316 0 127 127
-0.692131 -0.504794 0.378414 76 0 153
0.063429 0.446394 -0.137419 204 51 127
-0.255017 0.000813 -0.430577 76 153 0
-0.707359 -0.500359 -0.343733 0 127 127
-0.509022 0.398513 -0.072303 76 0 153
-0.707359 -0.450072 0.278266 0 127 127
0.295318 0.365422 -0.430577 76 153 0
-0.430583 -0.230517 -0.430577 76 153 0
-0.540977 0.454513 -0.286757 153 0 76
0.526253 -0.503954 0.405380 153 0 76
-0.132888 0.041966 -0.417094 76 153 0
0.061724 -0.104859 -0.059396 76 0 153
0.648451 -0.138328 0.378414 127 0 127
0.043432 -0.468905 0.299430 153 0 76
-0.280226 -0.495215 0.405380 153 0 76
-0.637696 0.403818 0.139816 0 127 127
-0.707359 -0.514525 0.158839 76 0 153
0.090945 -0.468905 0.289549 153 0 76
-0.629231 -0.273431 0.432319 127 127 0
-0.665672 -0.468905 0.059040 153 0 76
0.030888 -0.104859 -0.165811 76 0 153
-0.189901 -0.122837 0.409758 127 127 0
0.330832 0.476675 -0.430577 76 153 0
-0.264958 0.554457 -0.430577 127 127 0
0.605303 0.537839 -0.425081 255 0 0
-0.051180 0.104372 0.417735 127 127 0
-0.598520 -0.077893 0.326191 76 0 153
-0.397324 -0.104859 0.014875 76 0 153
0.584579 -0.192675 -0.430577 76 153 0
-0.707359 -0.521380 -0.412522 76 0 153
-0.412946 -0.472477 -0.417094 76 153 0
0.580284 0.479947 -0.227232 0 0 255
0.290862 -0.077893 -0.084457 76 0 153
-0.482927 0.368573 -0.417094 76 153 0
-0.511955 0.391771 0.041700 76 0 153
0.004114 -0.390779 0.378414 153 76 0
0.676914 0.319501 0.213112 127 0 127
-0.608654 -0.468905 0.233699 153 0 76
-0.093875 0.382984 -0.251217 76 153 0
-0.680806 0.537839 0.265946 0 255 0
0.096819 0.398513 0.058739 0 255 0
0.658936 0.403709 -0.304404 127 0 127
-0.549811 -0.381386 -0.430577 76 153 0
-0.707359 -0.022435 -0.303626 0 127 127
-0.286192 -0.104859 0.017380 76 0 153
0.550431 -0.104859 0.209612 76 0 153
-0.668571 0.537839 0.121878 0 255 0
0.498461 -0.104859 -0.175009 76 0 153
0.177488 0.398513 0.179494 0 255 0
-0.120841 0.406431 0.365989 76 153 0
-0.685551 -0.503123 0.293020 153 76 0
-0.615487 -0.351662 -0.417094 76 153 0
0.270667 -0.104859 0.192094 76 0 153
0.676914 0.063038 0.037447 127 0 127
-0.120841 0.410215 -0.147535 76 153 0
-0.556047 -0.104859 0.160986 76 0 153
-0.677815 0.537839 0.352764 0 255 0
-0.574243 -0.028538 0.409758 127 127 0
0.627944 -0.104859 -0.355564 76 0 153
0.039428 -0.104859 0.040863 76 0 153
0.110351 -0.077893 0.120295 76 0 153
0.559786 0.308099 -0.430577 76 153 0
0.012062 0.502189 0.405380 153 76 0
-0.176034 -0.104859 -0.310297 76 0 153
-0.628643 -0.206565 0.432319 127 127 0
-0.038191 -0.414343 0.378414 153 76 0
0.264029 0.071052 -0.417094 76 153 0
-0.078210 -0.372122 0.405353 127 127 0
0.117614 -0.315813 0.409758 0 127 127
-0.545400 -0.077893 -0.195394 76 0 153
-0.452556 0.391771 0.015768 76 0 153
0.551197 0.424424 0.424186 153 0 76
0.507286 0.175131 -0.417094 76 153 0
-0.037184 -0.077893 -0.142192 76 0 153
-0.316483 -0.077893 0.189416 76 0 153
0.573865 0.479486 0.432346 153 0 76
-0.030548 0.289255 0.405380 204 51 127
-0.637696 0.448885 -0.041944 0 127 127
0.676914 -0.631473 0.034959 76 0 153
0.637502 0.046263 0.378414 127 0 127
-0.707359 -0.424244 -0.418580 0 127 127
-0.190608 -0.603955 -0.457543 153 0 76
0.676914 0.539325 -0.234538 127 0 127
-0.707359 0.349126 0.091281 0 127 127
-0.570255 -0.379149 0.409758 127 127 0
0.658936 -0.185212 -0.042744 127 0 127
0.437126 -0.077893 -0.376707 76 0 153
0.334658 0.458209 -0.313723 255 0 0
0.384177 0.102860 -0.417094 76 153 0
-0.130607 -0.291112 0.418052 127 127 0
-0.595705 0.422687 0.378414 127 0 127
-0.605328 0.398513 -0.271907 76 0 153
0.658936 0.317283 0.072117 127 0 127
0.516299 0.472206 0.405380 153 0 76
-0.531877 -0.561917 0.293020 153 76 0
-0.069156 -0.334004 0.404615 153 76 0
0.240457 -0.280159 -0.430577 76 153 0
-0.689382 -0.291745 0.118939 0 127 127
0.094945 0.401262 -0.313723 255 0 0
-0.521369 -0.077893 0.251317 76 0 153
-0.689382 0.252972 0.009492 0 127 127
0.109850 0.122817 0.409758 0 127 127
-0.009309 -0.077893 0.090427 76 0 153
0.607251 0.444727 0.215845 0 0 255
-0.610865 -0.303059 0.432319 127 127 0
0.368849 -0.410411 -0.417094 76 153 0
0.658936 -0.046552 0.055820 127 0 127
-0.255565 -0.404853 -0.417094 76 153 0
-0.120841 0.410175 0.150166 76 153 0
-0.000228 -0.469168 -0.430577 76 153 0
-0.707359 -0.432915 0.167932 0 127 127
-0.627903 0.343872 -0.417094 76 153 0
0.482296 -0.536605 -0.457543 153 0 76
-0.473242 0.481659 -0.288816 153 0 76
0.643386 -0.104859 -0.255060 76 0 153
0.342261 -0.468905 -0.368312 153 0 76
0.182308 0.247236 0.438340 76 153 0
0.644338 -0.273017 0.405353 0 127 127
0.474059 -0.133189 -0.430577 76 153 0
-0.629229 -0.244278 0.405353 127 127 0
-0.466316 0.414782 0.405380 127 0 127
0.658936 -0.107532 0.343012 0 127 127
0.186565 -0.468905 0.048649 153 0 76
0.023395 -0.077893 0.191507 76 0 153
0.676914 -0.009681 -0.129047 127 0 127
0.430200 -0.077893 0.318626 76 0 153
0.023238 -0.104859 0.086640 76 0 153
0.360366 -0.579021 -0.457543 153 0 76
-0.070400 -0.077893 -0.188523 76 0 153
-0.312238 -0.104859 -0.103667 76 0 153
-0.419788 0.361224 -0.417094 76 153 0
-0.675130 0.406184 0.405380 127 0 127
-0.488172 0.512505 0.432346 127 0 127
0.495151 0.341769 0.432346 153 0 76
0.484728 -0.652330 0.293020 153 76 0
0.327717 -0.489394 0.293020 153 76 0
0.366097 -0.077893 -0.303626 76 0 153
0.116620 -0.077893 0.199182 76 0 153
0.094957 -0.077893 0.056094 76 0 153
-0.342060 0.129827 -0.417094 76 153 0
0.591600 0.261729 -0.417094 76 153 0
-0.378032 -0.104859 0.184794 76 0 153
-0.260562 -0.104859 0.276545 76 0 153
-0.707359 -0.590778 0.119242 76 0 153
0.629245 -0.077893 0.344540 76 0 153
0.119353 0.527554 0.405380 0 0 255
0.199128 0.351192 -0.417094 76 153 0
0.066875 -0.077893 -0.226442 76 0 153
0.529345 -0.077893 -0.402337 76 0 153
0.581911 0.561463 -0.430577 127 127 0
0.658936 -0.493285 -0.004636 127 0 127
-0.221838 -0.104859 -0.185207 76 0 153
0.676914 -0.140147 -0.129886 127 0 127
0.131322 0.398513 -0.139792 0 255 0
0.374205 0.157138 0.432346 0 127 127
-0.511826 -0.655104 0.293020 153 76 0
-0.663993 0.050313 -0.417094 76 153 0
0.039376 0.525847 -0.457543 127 127 0
0.020732 0.343291 0.414334 153 0 76
-0.579952 -0.104859 -0.245407 76 0 153
-0.575408 -0.077893 -0.114280 76 0 153
0.495558 -0.468905 0.285518 153 0 76
-0.331301 -0.468905 -0.073915 153 0 76
-0.360269 -0.077893 -0.036658 76 0 153
0.658936 0.436023 -0.399092 127 0 127
0.587623 0.496189 -0.417094 76 153 0
0.644962 0.519862 -0.040546 255 0 0
-0.581516 0.532451 -0.169905 0 255 0
0.551071 0.525169 0.357789 255 0 0
0.658936 -0.244202 -0.135157 127 0 127
-0.326313 -0.104859 0.355519 76 0 153
-0.032591 -0.104859 -0.354221 76 0 153
0.373212 -0.014048 0.409758 0 127 127
-0.470086 0.065743 -0.417094 76 153 0
-0.606606 -0.082173 0.405353 127 127 0
0.616829 -0.104859 0.055909 76 0 153
0.338396 0.262894 0.478340 76 153 0
0.658936 -0.033177 -0.437433 127 0 127
0.444576 -0.425891 0.405353 0 127 127
-0.532468 0.147655 -0.430577 76 153 0
0.676914 0.055946 0.092614 127 0 127
-0.687740 -0.228597 0.405380 76 0 153
0.050999 0.058280 0.432319 0 127 127
-0.089504 -0.225085 0.405353 127 127 0
-0.470075 -0.104859 0.067944 76 0 153
-0.689382 0.490911 0.305561 76 0 153
-0.069156 0.450778 0.381369 153 76 0
-0.261792 -0.078803 0.409758 127 127 0
0.549490 -0.077893 -0.177520 76 0 153
-0.176538 -0.077893 0.289453 76 0 153
0.676517 0.037844 -0.457543 127 0 127
0.250045 0.277164 0.392393 204 51 127
0.553943 0.398513 0.120761 0 255 0
-0.265769 0.391771 0.296301 76 0 153
0.298096 -0.196450 0.409758 0 127 127
-0.134596 0.048975 0.409758 127 127 0
0.393107 -0.077893 0.256143 76 0 153
0.189889 0.412172 -0.286757 255 0 0
0.036467 0.240180 0.378414 153 76 0
-0.689382 -0.134266 0.161638 0 127 127
0.580284 0.454850 -0.059135 0 0 255
0.191029 0.418282 0.432346 153 0 76
-0.251563 0.110764 0.432346 127 127 0
-0.059829 -0.468905 0.297512 153 0 76
-0.249582 -0.104859 -0.396212 76 0 153
0.019391 0.310791 -0.430577 76 153 0
0.580284 0.469265 0.336307 0 0 255
-0.707359 0.231300 -0.241012 0 127 127
0.132171 0.461267 0.420570 153 0 76
-0.308053 -0.004323 0.409758 127 127 0
0.607251 0.470500 0.107954 0 0 255
0.461483 0.217406 -0.417094 76 153 0
-0.689345 -0.214815 -0.417094 76 153 0
-0.230164 0.398513 -0.164207 76 0 153
-0.640143 -0.104859 0.089037 76 0 153
0.658933 0.538142 0.405380 127 0 127
0.585272 -0.012772 0.432319 0 127 127
-0.573655 0.511674 0.432346 127 0 127
-0.689382 0.088974 -0.415772 0 127 127
0.676914 -0.259649 0.254001 127 0 127
-0.689382 0.416064 -0.018767 0 127 127
-0.649129 -0.563846 0.293020 153 76 0
0.091431 -0.104859 -0.165745 76 0 153
-0.182454 -0.077893 -0.212646 76 0 153
0.520907 -0.468905 -0.364740 153 0 76
0.095691 0.435197 -0.430577 76 153 0
-0.368641 -0.385160 0.409758 127 127 0
0.676914 -0.303717 -0.079328 127 0 127
0.362204 0.338405 -0.417094 76 153 0
0.000559 0.277164 0.385649 204 51 127
0.100600 -0.468905 0.047419 153 0 76
0.009623 -0.312313 0.405380 153 76 0
-0.690957 0.090123 0.405380 76 0 153
-0.707359 -0.035310 -0.422236 0 127 127
-0.041134 0.282559 -0.430577 76 153 0
-0.707359 0.487465 -0.351247 0 127 127
-0.350653 -0.477888 0.412823 127 127 0
-0.375650 0.529002 -0.430577 127 127 0
-0.202573 0.016741 -0.417094 76 153 0
0.676914 -0.146069 0.189443 127 0 127
0.533821 -0.468905 0.084771 153 0 76
0.658936 -0.422156 -0.348683 127 0 127
-0.689382 -0.289410 -0.261497 0 127 127
0.586099 -0.468905 0.165435 153 0 76
-0.052916 -0.104859 0.002158 76 0 153
-0.308945 -0.104859 -0.372793 76 0 153
0.323834 -0.077893 0.032843 76 0 153
0.326554 -0.468905 0.040190 153 0 76
-0.393581 0.159052 0.409758 127 127 0
0.301802 -0.090015 0.409758 0 127 127
-0.548450 -0.004213 0.409758 127 127 0
-0.052636 -0.104859 0.136389 76 0 153
-0.347807 0.177380 0.409758 127 127 0
0.676914 -0.293340 -0.042458 127 0 127
0.292297 -0.077893 -0.050919 76 0 153
0.172159 0.178522 -0.430577 76 153 0
-0.302345 0.306525 0.378414 204 51 127
0.506409 -0.602655 0.293020 153 76 0
0.308439 0.391771 -0.024605 0 255 0
-0.512048 -0.104859 -0.225936 76 0 153
-0.484459 0.542526 -0.457543 127 127 0
-0.497247 0.398513 0.358157 76 0 153
-0.504601 0.432274 0.378414 127 0 127
0.439361 -0.077893 0.204736 76 0 153
-0.630124 0.481659 0.129667 0 127 127
-0.581501 0.185902 -0.417094 76 153 0
0.063429 0.439805 0.080554 204 51 127
-0.107141 -0.104859 -0.043172 76 0 153
0.603533 0.191754 0.405353 0 127 127
-0.433015 -0.077893 0.371211 76 0 153
0.186429 0.391771 0.300258 0 255 0
0.676914 0.250594 -0.265900 127 0 127
0.310349 0.412460 -0.286757 255 0 0
-0.221120 0.177475 0.409758 127 127 0
0.098649 0.398513 -0.257670 0 255 0
0.428874 -0.104859 -0.312240 76 0 153
0.270288 -0.468905 -0.263664 153 0 76
0.676914 0.403085 0.026820 127 0 127
-0.671755 0.120784 0.428867 127 127 0
0.429493 0.030663 0.432346 0 127 127
-0.186328 0.391771 -0.017856 76 0 153
0.193810 -0.234235 -0.417094 76 153 0
0.676914 -0.565363 -0.005312 76 0 153
0.457357 -0.438919 -0.417094 76 153 0
-0.240389 -0.468905 0.314732 153 0 76
0.658936 0.248936 -0.314961 127 0 127
-0.662416 -0.306723 0.378439 76 0 153
-0.270201 -0.104859 -0.350466 76 0 153
-0.535433 -0.077893 0.072375 76 0 153
0.124100 -0.513849 0.402249 153 0 76
-0.478499 -0.077893 -0.128892 76 0 153
0.582410 -0.104859 -0.234682 76 0 153
-0.351935 0.054296 0.432346 127 127 0
0.640049 -0.104859 0.211323 76 0 153
0.307255 -0.480238 0.405380 153 0 76
-0.367946 -0.468905 0.129549 153 0 76
0.462573 -0.468905 0.312818 153 0 76
0.394839 0.391771 -0.201969 0 255 0
-0.082263 -0.104859 -0.126237 76 0 153
0.138720 -0.077893 0.068287 76 0 153
0.562185 0.398513 0.154859 0 255 0
-0.093614 -0.077893 0.070131 76 0 153
-0.180076 -0.424269 0.432319 127 127 0
-0.663255 -0.077893 0.338825 76 0 153
-0.402129 0.472913 0.378414 127 0 127
-0.658549 -0.077893 -0.044739 76 0 153
0.676914 -0.209896 -0.284203 127 0 127
0.657407 -0.476411 0.378414 127 0 127
0.536863 -0.175843 -0.417094 76 153 0
0.658936 0.269419 0.233108 127 0 127
-0.336300 -0.489239 0.293020 153 76 0
-0.689382 0.391529 0.021007 0 127 127
-0.000223 -0.104859 0.236664 76 0 153
0.430709 -0.468905 0.012460 153 0 76
-0.601382 0.519862 0.298312 0 255 0
0.676914 -0.281779 -0.317993 127 0 127
-0.465981 -0.429638 0.405353 127 127 0
-0.093554 -0.077893 -0.158658 76 0 153
-0.094861 -0.468905 -0.139354 153 0 76
-0.395259 -0.077893 -0.146487 76 0 153
0.044893 0.395625 -0.430577 76 153 0
-0.670778 -0.307506 -0.417094 76 153 0
-0.340026 0.200683 -0.430577 76 153 0
0.012083 -0.121025 0.405380 153 76 0
-0.329898 0.379962 -0.417094 76 153 0
-0.057152 0.432964 -0.430577 76 153 0
0.024051 -0.471025 0.378414 153 0 76
0.100540 -0.468905 -0.151402 153 0 76
-0.687682 -0.158873 0.405380 76 0 153
-0.299162 -0.230289 0.432346 127 127 0
-0.365223 -0.174317 0.432346 127 127 0
0.209897 0.391771 0.193376 0 255 0
-0.689382 -0.460437 0.080579 0 127 127
0.559548 0.391771 -0.079384 0 255 0
0.453631 -0.486972 0.378414 153 0 76
-0.689382 0.255855 0.189893 0 127 127
-0.689382 -0.157823 -0.043527 0 127 127
-0.707359 -0.637612 -0.076102 76 0 153
-0.199171 -0.077893 0.123450 76 0 153
-0.093875 0.457307 -0.084968 76 153 0
0.463048 0.391771 -0.281094 0 255 0
0.112048 0.397581 -0.430577 76 153 0
0.000784 -0.040071 0.405380 153 76 0
0.409503 -0.468905 -0.086696 153 0 76
-0.495988 0.204038 -0.417094 76 153 0
-0.689382 0.160675 0.174955 0 127 127
-0.498273 -0.104859 0.037632 76 0 153
0.514954 0.242885 -0.417094 76 153 0
0.081000 -0.468905 -0.083748 153 0 76
-0.635389 0.318957 0.405380 204 51 127
-0.707359 0.161501 0.066215 0 127 127
0.602098 -0.077893 0.312158 76 0 153
-0.493696 -0.373982 0.409758 127 127 0
0.615562 -0.077893 0.217410 76 0 153
0.622984 0.519862 0.174342 255 0 0
0.676914 0.473012 -0.107787 127 0 127
-0.529745 0.564806 0.404844 0 0 255
0.326104 -0.027615 0.432346 0 127 127
0.122596 0.419132 0.378414 153 0 76
-0.171738 -0.104859 0.170284 76 0 153
0.658936 -0.268139 0.286161 127 0 127
-0.093984 0.452854 -0.430577 76 153 0
-0.385408 -0.087187 0.378414 76 0 153
-0.535624 -0.646863 -0.457543 153 0 76
-0.500823 -0.168792 -0.417094 76 153 0
-0.218124 0.391771 0.226935 76 0 153
0.007120 -0.468905 -0.168883 153 0 76
-0.707359 0.097524 0.216439 0 127 127
0.270456 -0.077893 0.142557 76 0 153
0.115934 0.354855 0.432346 153 0 76
-0.029813 0.139116 -0.430577 76 153 0
-0.368266 0.083865 -0.417094 76 153 0
0.618723 0.112618 0.405353 0 127 127
0.013542 0.250203 0.405380 153 76 0
-0.108650 -0.468905 0.346064 153 0 76
-0.006794 0.257224 -0.417094 76 153 0
0.658936 -0.168588 -0.447561 127 0 127
-0.122894 0.543265 0.378414 0 0 255
-0.213267 -0.104859 -0.331633 76 0 153
0.407496 -0.400333 0.426479 0 127 127
-0.031945 0.271186 0.378414 153 76 0
0.082997 -0.104859 0.162021 76 0 153
0.383905 0.039208 0.409758 0 127 127
0.594549 -0.624786 -0.457543 153 0 76
-0.298303 -0.468905 0.266901 153 0 76
-0.197491 -0.468905 -0.334471 153 0 76
0.450888 -0.154131 -0.417094 76 153 0
-0.680390 -0.190894 0.415876 127 127 0
-0.440224 0.463976 -0.313723 153 0 76
0.607251 0.404503 0.375647 0 0 255
-0.069156 -0.247819 0.394270 153 76 0
-0.301098 -0.027438 0.432346 127 127 0
0.658936 0.028548 0.153080 127 0 127
0.614993 0.370368 0.432346 153 0 76
0.363016 -0.077893 -0.243845 76 0 153
-0.590982 -0.077893 0.210489 76 0 153
0.658936 -0.445730 -0.012059 127 0 127
0.676914 0.280775 0.316472 0 127 127
-0.356245 0.420107 0.405380 127 0 127
0.434396 -0.468905 -0.224689 153 0 76
0.063429 0.396841 0.160937 204 51 127
-0.623105 -0.459916 0.381796 153 0 76
-0.439349 0.071014 -0.430577 76 153 0
-0.302183 -0.077893 -0.134580 76 0 153
-0.343295 -0.104859 0.013732 76 0 153
-0.707359 -0.188548 0.029192 0 127 127
-0.310707 -0.468905 -0.173217 153 0 76
0.317566 -0.104859 0.252648 76 0 153
0.216506 0.459370 -0.286757 255 0 0
-0.689382 -0.324396 0.288602 0 127 127
-0.056512 -0.468905 0.173282 153 0 76
-0.120841 0.476645 0.115519 76 153 0
-0.637696 0.419944 -0.087952 0 127 127
0.580284 0.453761 0.022185 0 0 255
-0.068623 0.214881 0.378414 153 76 0
-0.707359 0.553441 0.002653 0 127 127
0.232837 0.534939 -0.430577 127 127 0
0.304946 -0.077893 0.344916 76 0 153
-0.338036 0.455883 -0.313723 153 0 76
-0.428861 0.022106 0.432346 127 127 0
-0.221146 0.534180 0.378414 0 0 255
0.387917 0.398513 0.365232 0 255 0
0.563912 -0.077893 0.239333 76 0 153
0.561852 0.208034 -0.430577 76 153 0
-0.628367 -0.104859 0.272992 76 0 153
0.676914 0.448937 0.170035 127 0 127
-0.004905 0.192247 -0.417094 76 153 0
-0.328838 -0.077893 -0.325399 76 0 153
0.676914 -0.605942 -0.277018 76 0 153
0.636644 -0.468905 0.066578 153 0 76
0.490454 0.398513 0.040495 0 255 0
-0.344580 0.398513 -0.149430 76 0 153
-0.334319 -0.118278 0.409758 127 127 0
-0.113875 0.416349 -0.430577 76 153 0
0.611738 -0.077893 0.010747 76 0 153
0.580284 0.394313 -0.203894 0 0 255
-0.689382 -0.108512 0.273237 0 127 127
-0.424005 -0.077893 -0.316447 76 0 153
-0.689382 0.017595 0.268329 0 127 127
-0.548138 -0.623975 0.293020 153 76 0
-0.587878 -0.528339 -0.457543 153 0 76
-0.369341 0.322001 0.429815 127 0 127
0.222212 0.376032 0.418876 153 0 76
-0.660262 -0.104859 -0.312173 76 0 153
-0.233615 -0.022962 0.432346 127 127 0
0.493017 -0.431810 0.405353 0 127 127
-0.618919 -0.502670 0.405380 153 0 76
-0.098011 0.541603 -0.457543 127 127 0
0.658936 0.228038 -0.194456 127 0 127
-0.648645 -0.468905 -0.368025 153 0 76
-0.096596 0.373794 0.328982 76 153 0
0.676914 -0.438676 -0.157115 127 0 127
-0.703199 0.564806 0.183684 0 127 127
0.061821 -0.468905 0.266232 153 0 76
0.676914 0.497772 0.119405 127 0 127
-0.662357 0.537839 -0.082827 0 255 0
0.233493 0.236283 0.405353 0 127 127
-0.679283 0.022767 0.405380 76 0 153
0.306180 -0.104859 -0.039578 76 0 153
-0.456373 -0.077893 0.232380 76 0 153
-0.610730 0.407641 0.205350 0 127 127
-0.211150 -0.443470 0.405353 127 127 0
-0.578506 0.398513 -0.187682 76 0 153
-0.466393 0.252468 -0.430577 76 153 0
-0.707359 -0.586932 0.257844 76 0 153
-0.637696 0.391210 -0.212444 0 127 127
-0.297663 -0.104859 0.284572 76 0 153
-0.186919 0.401456 -0.417094 76 153 0
-0.707359 0.317693 -0.315661 0 127 127
0.676914 0.457343 0.327209 0 127 127
0.658936 -0.509990 -0.281239 127 0 127
0.525958 -0.172038 0.427463 0 127 127
0.261982 -0.467763 -0.457543 153 0 76
0.676914 -0.409470 0.311957 0 127 127
0.072821 -0.204042 0.432319 0 127 127
0.658936 0.046571 -0.207753 127 0 127
0.491636 0.521406 -0.457543 127 127 0
0.587291 0.519862 -0.267748 255 0 0
0.328095 -0.077893 -0.169918 76 0 153
0.630215 -0.468905 0.152659 153 0 76
0.658936 -0.458816 -0.257873 127 0 127
-0.469667 0.111321 -0.430577 76 153 0
-0.555583 0.465226 0.405380 127 0 127
0.604318 0.373794 0.042882 0 0 255
0.357885 0.244166 0.432319 0 127 127
-0.137381 -0.454989 0.405353 127 127 0
0.580284 0.411285 -0.045153 0 0 255
0.441902 0.326254 0.432346 153 0 76
-0.625815 0.436562 -0.313723 0 127 127
0.593954 0.537839 0.225742 255 0 0
-0.320030 -0.067741 0.432346 127 127 0
0.353727 -0.164354 0.432346 0 127 127
0.257133 0.391771 -0.209104 0 255 0
-0.422010 -0.572184 0.293020 153 76 0
-0.707359 -0.106343 0.347302 76 0 153
-0.069679 -0.077893 0.142363 76 0 153
0.658936 0.474345 -0.254065 127 0 127
-0.578755 0.398513 -0.106814 76 0 153
0.074841 -0.468905 -0.127867 153 0 76
-0.201828 0.321700 -0.417094 76 153 0
-0.680393 0.342116 0.416285 127 0 127
0.658936 0.470419 0.272893 127 0 127
-0.391204 0.301071 0.405380 204 51 127
-0.402065 0.391771 0.354217 76 0 153
-0.130145 -0.104859 -0.318267 76 0 153
-0.169289 -0.468905 0.361173 153 0 76
0.676914 0.016821 0.041685 127 0 127
-0.186452 0.166700 -0.417094 76 153 0
0.658936 0.278932 -0.178696 127 0 127
0.344743 0.391771 -0.095983 0 255 0
-0.636644 0.504780 -0.457543 127 127 0
0.425395 -0.104859 0.095346 76 0 153
0.393087 -0.146775 -0.430577 76 153 0
-0.650376 -0.485753 -0.417094 76 153 0
-0.103640 0.120788 0.405353 127 127 0
-0.416994 -0.438878 -0.430577 76 153 0
-0.489074 -0.065452 -0.417094 76 153 0
-0.477316 0.175074 -0.430577 76 153 0
0.658936 -0.490255 -0.329629 127 0 127
-0.257912 0.391771 0.358367 76 0 153
-0.423240 -0.104859 -0.257084 76 0 153
0.683446 -0.216329 0.378414 127 0 127
0.239365 0.545427 0.405380 0 0 255
0.568254 -0.104859 -0.031226 76 0 153
-0.358588 -0.104859 -0.287481 76 0 153
0.419100 -0.366876 0.423030 0 127 127
0.676914 -0.178282 -0.327833 127 0 127
0.332671 0.271520 -0.417094 76 153 0
0.125101 0.391771 0.339177 0 255 0
0.152974 -0.072246 0.409758 0 127 127
-0.570407 -0.293370 0.422865 127 127 0
0.147307 -0.104859 0.193837 76 0 153
-0.610730 0.475129 -0.127358 0 127 127
0.676914 -0.500332 -0.162080 127 0 127
0.151735 0.285670 0.378414 204 51 127
-0.396941 0.391771 0.163242 76 0 153
-0.707359 -0.015867 -0.140991 0 127 127
-0.689382 0.522857 -0.347934 0 127 127
0.678796 -0.265092 0.405380 127 0 127
-0.521120 0.398513 -0.240059 76 0 153
-0.018228 -0.104859 0.273962 76 0 153
0.479415 0.424672 0.405380 153 0 76
0.658936 0.063176 -0.403467 127 0 127
0.073018 -0.077893 0.327734 76 0 153
-0.237663 -0.104859 -0.013135 76 0 153
-0.314281 -0.485374 -0.430577 76 153 0
0.182913 -0.468905 0.182918 153 0 76
0.425891 0.391771 0.175279 0 255 0
-0.373582 0.245166 -0.430577 76 153 0
0.301952 0.052362 -0.417094 76 153 0
0.299524 0.135724 0.409758 0 127 127
-0.568092 -0.468905 0.295031 153 0 76
0.062090 -0.104859 0.116655 76 0 153
0.270059 -0.565510 -0.457543 153 0 76
-0.327300 -0.077893 0.121162 76 0 153
-0.442925 0.335254 0.432346 127 0 127
-0.689382 0.357839 0.355682 76 0 153
0.114314 0.235561 0.432319 0 127 127
-0.387239 -0.104859 -0.398524 76 0 153
-0.707359 -0.469200 -0.225457 0 127 127
0.280141 -0.456780 -0.417094 76 153 0
0.658936 0.514515 0.042387 127 0 127
-0.511001 0.496592 -0.417094 76 153 0
0.658936 -0.429567 -0.273063 127 0 127
0.064041 -0.250235 0.432319 0 127 127
-0.689382 -0.123150 -0.409825 0 127 127
-0.108563 -0.077893 -0.083937 76 0 153
0.234512 -0.104859 0.084438 76 0 153
0.097902 -0.468905 -0.350029 153 0 76
0.676914 0.503503 -0.086762 127 0 127
0.482520 0.294286 0.406386 0 127 127
0.394394 -0.434634 -0.417094 76 153 0
0.412367 -0.468569 0.405353 0 127 127
-0.707359 0.561570 0.278240 0 127 127
-0.707359 -0.306559 -0.317096 0 127 127
0.342977 -0.468905 -0.400227 153 0 76
0.670986 0.153910 0.405380 127 0 127
0.658936 -0.094381 -0.295989 127 0 127
-0.707359 -0.272390 -0.357162 0 127 127
0.160187 -0.468905 0.091846 153 0 76
-0.506232 0.391771 0.240467 76 0 153
0.396252 -0.660677 -0.457543 153 0 76
-0.360801 -0.104859 -0.369143 76 0 153
0.623548 -0.137572 0.432319 0 127 127
0.315873 0.300052 -0.417094 76 153 0
-0.637696 0.398237 0.345944 0 127 127
-0.431838 -0.077893 -0.032132 76 0 153
-0.631980 -0.468905 0.121004 153 0 76
-0.620628 0.373794 -0.182817 0 127 127
-0.707359 -0.506942 -0.212179 0 127 127
0.665764 0.516762 0.378414 127 0 127
0.290107 -0.468905 0.253532 153 0 76
-0.259880 -0.110619 0.409758 127 127 0
-0.231000 -0.541207 -0.457543 153 0 76
0.191590 0.398513 -0.184580 0 255 0
0.413861 0.477522 -0.286757 255 0 0
-0.568493 -0.435015 0.405353 127 127 0
0.658936 -0.262751 -0.418660 127 0 127
0.256654 -0.161897 -0.417094 76 153 0
0.658936 0.400957 0.357126 0 127 127
0.589932 -0.416868 0.432319 0 127 127
0.428871 -0.449055 -0.430577 76 153 0
0.160352 -0.299173 0.409758 0 127 127
-0.689382 -0.186380 -0.213148 0 127 127
0.676914 0.553853 -0.043248 127 0 127
-0.165342 0.043771 0.423529 127 127 0
-0.605302 -0.077893 0.073283 76 0 153
-0.098436 0.156624 0.432319 127 127 0
0.197635 -0.104859 0.141172 76 0 153
0.657165 0.537839 -0.393685 255 0 0
0.202808 -0.104859 -0.341902 76 0 153
0.481050 -0.077893 -0.185049 76 0 153
-0.388088 0.347854 0.432346 127 0 127
-0.051207 0.034935 0.405380 153 76 0
0.066981 -0.077893 -0.148745 76 0 153
-0.101546 -0.468905 -0.331312 153 0 76
-0.689382 0.394898 -0.046844 0 127 127
-0.612258 -0.468905 0.332433 153 0 76
0.331912 -0.540908 -0.457543 153 0 76
-0.251723 -0.104859 -0.137357 76 0 153
0.059784 0.330862 0.432346 153 0 76
-0.168437 0.477839 -0.430577 76 153 0
-0.221435 -0.077893 -0.004700 76 0 153
-0.431152 -0.468905 0.261685 153 0 76
-0.537372 -0.104859 0.036590 76 0 153
-0.514373 -0.108140 0.409758 127 127 0
0.658936 0.544507 0.071738 127 0 127
0.191093 -0.077893 -0.399992 76 0 153
-0.386452 -0.138860 0.409758 127 127 0
-0.689382 0.269744 -0.178198 0 127 127
-0.413934 -0.104859 -0.350134 76 0 153
0.513490 -0.122884 -0.430577 76 153 0
-0.707359 0.549184 0.071668 0 127 127
0.436600 0.258566 0.432319 0 127 127
0.446023 0.398513 -0.067983 0 255 0
-0.110043 0.009533 0.432319 127 127 0
0.582624 0.519862 -0.100741 255 0 0
0.170235 -0.468905 -0.410892 153 0 76
0.387210 0.435750 0.405380 153 0 76
0.063429 0.475065 0.313889 204 51 127
-0.290274 -0.286838 0.432346 127 127 0
-0.707359 -0.074880 -0.343293 0 127 127
0.474189 -0.077893 0.018870 76 0 153
0.676914 -0.232172 -0.165855 127 0 127
0.676914 0.003152 -0.268657 127 0 127
0.569496 0.363029 0.432346 153 0 76
0.579580 -0.584310 -0.457543 153 0 76
0.647372 0.519862 -0.152701 255 0 0
0.091754 -0.081350 0.378414 76 0 153
-0.621519 0.519862 0.373783 0 255 0
-0.289769 -0.077893 0.261742 76 0 153
-0.689382 -0.199381 0.317683 76 0 153
0.647938 -0.104859 -0.162087 76 0 153
-0.707359 -0.338527 -0.322485 0 127 127
-0.441706 -0.295329 0.432346 127 127 0
0.108906 -0.104859 0.325581 76 0 153
0.527641 -0.077893 -0.235361 76 0 153
0.336338 -0.444659 0.405353 0 127 127
-0.122650 -0.104859 -0.361135 76 0 153
0.496647 -0.077893 -0.412263 76 0 153
-0.652318 -0.104859 -0.027428 76 0 153
-0.642342 0.481116 -0.430577 76 153 0
-0.130403 0.398513 0.019566 76 0 153
0.431346 -0.468905 0.237751 153 0 76
0.255745 -0.316359 0.409758 0 127 127
0.352683 0.519407 -0.417094 76 153 0
-0.584373 0.140003 -0.430577 76 153 0
-0.252030 0.192737 0.420273 127 127 0
-0.707359 -0.669577 -0.350267 76 0 153
0.583593 0.327584 -0.417094 76 153 0
0.676914 -0.600509 0.130817 76 0 153
0.616920 -0.104859 0.319534 76 0 153
-0.185967 -0.104859 0.028224 76 0 153
0.658936 0.006049 0.016355 127 0 127
-0.601222 -0.131059 0.406365 127 127 0
-0.029702 0.358543 0.378414 153 76 0
-0.689382 -0.120543 -0.174033 0 127 127
-0.103937 -0.253223 0.405353 127 127 0
0.586273 0.044806 0.405353 0 127 127
-0.330567 0.490803 -0.430577 76 153 0
-0.399797 -0.633838 -0.457543 153 0 76
-0.051181 -0.128547 0.415951 127 127 0
-0.707359 -0.633387 -0.172344 76 0 153
0.409666 0.485941 -0.430577 76 153 0
-0.637696 0.427260 -0.212107 0 127 127
0.005866 -0.077893 0.253615 76 0 153
-0.120841 0.457547 0.008328 76 153 0
-0.576243 -0.104859 0.377524 76 0 153
-0.323345 0.125076 0.432346 127 127 0
-0.482975 -0.104859 0.328325 76 0 153
0.113158 -0.351643 -0.417094 76 153 0
-0.369668 -0.077893 -0.275373 76 0 153
0.396583 0.398513 0.287484 0 255 0
-0.443507 0.447181 0.405380 127 0 127
0.256984 0.535033 -0.457543 127 127 0
-0.071472 0.213398 0.432319 127 127 0
0.404214 0.455573 -0.417094 76 153 0
-0.011412 0.091175 0.405380 153 76 0
-0.707359 0.013996 -0.396581 0 127 127
-0.088923 -0.468905 0.122150 153 0 76
0.418151 0.462683 0.405380 153 0 76
-0.168440 -0.468905 0.070767 153 0 76
-0.707359 0.033879 -0.225667 0 127 127
-0.707359 0.199839 0.326655 76 0 153
-0.259123 -0.458907 -0.430577 76 153 0
0.384835 -0.468905 0.365897 153 0 76
0.534537 0.166849 -0.430577 76 153 0
-0.615931 -0.068919 -0.417094 76 153 0
-0.500190 -0.468905 -0.212206 153 0 76
0.248908 0.481659 -0.312892 255 0 0
-0.707359 -0.219869 -0.355619 0 127 127
-0.120841 0.456783 -0.283202 76 153 0
0.352450 -0.049698 -0.430577 76 153 0
0.133142 0.195507 -0.417094 76 153 0
-0.689382 -0.125057 -0.080849 0 127 127
0.289901 -0.468905 -0.288296 153 0 76
0.438560 -0.468905 0.164726 153 0 76
-0.120841 0.453445 -0.150695 76 153 0
0.385110 0.431679 -0.286757 255 0 0
-0.343912 -0.077893 -0.198318 76 0 153
0.648102 -0.104859 -0.101156 76 0 153
0.676914 0.113939 0.175636 127 0 127
0.111980 -0.077893 -0.006543 76 0 153
-0.500033 -0.292659 0.409758 127 127 0
0.245120 -0.104859 -0.118716 76 0 153
-0.079174 -0.145178 0.432319 127 127 0
0.304871 -0.640815 0.293020 153 76 0
-0.295566 -0.452395 0.432319 127 127 0
-0.689382 0.366648 -0.307964 0 127 127
0.676914 0.377202 -0.245210 127 0 127
0.339078 0.562145 -0.457543 127 127 0
-0.559621 0.395185 -0.313723 153 0 76
-0.158261 0.445085 -0.313723 153 0 76
0.503001 -0.003547 -0.417094 76 153 0
0.481929 -0.011639 0.432346 0 127 127
-0.093875 0.419487 -0.221749 76 153 0
0.296450 0.550327 -0.430577 127 127 0
-0.707359 -0.192718 0.120182 0 127 127
0.265231 0.433996 -0.430577 76 153 0
-0.419252 -0.272034 0.409758 127 127 0
0.643240 -0.419286 0.378414 127 0 127
0.620975 -0.047203 -0.417094 76 153 0
-0.689382 -0.186095 -0.312407 0 127 127
-0.509808 0.548940 -0.430577 127 127 0
-0.610730 0.379853 0.041652 0 127 127
0.403320 -0.468905 0.299790 153 0 76
-0.707359 0.131977 0.306202 76 0 153
0.676914 0.157715 -0.267844 127 0 127
-0.402435 -0.213229 0.409758 127 127 0
-0.453994 0.373794 -0.289023 153 0 76
0.533117 -0.475384 -0.417094 76 153 0
-0.707359 0.100542 -0.300235 0 127 127
-0.211786 0.474821 0.405380 127 0 127
-0.144853 -0.468905 0.121750 153 0 76
-0.352207 -0.238926 -0.417094 76 153 0
0.242113 -0.077893 -0.171028 76 0 153
0.428295 0.405068 0.378414 153 0 76
0.490487 -0.468905 0.247640 153 0 76
0.039191 -0.269385 0.432319 0 127 127
0.224097 0.447510 0.378414 153 0 76
-0.637696 0.451005 -0.126114 0 127 127
-0.217121 -0.104859 -0.082399 76 0 153
-0.689382 0.367405 0.117294 0 127 127
-0.381896 0.406237 -0.286757 153 0 76
-0.293362 0.391771 -0.263923 76 0 153
-0.529758 -0.197677 -0.430577 76 153 0
0.083491 0.074630 0.432319 0 127 127
0.676914 -0.530498 -0.030510 76 0 153
-0.542441 -0.468905 0.218800 153 0 76
-0.293345 0.456527 0.405380 127 0 127
-0.707359 0.467559 0.252012 0 127 127
0.254388 0.447417 0.424483 153 0 76
0.030054 -0.104859 -0.118181 76 0 153
-0.329638 -0.298211 0.432346 127 127 0
-0.220107 0.197890 -0.430577 76 153 0
-0.418326 -0.515370 0.293020 153 76 0
-0.182572 0.374355 -0.286757 153 0 76
0.173163 -0.494772 0.405380 153 0 76
0.676914 0.432880 -0.062036 127 0 127
0.676914 0.275386 -0.388113 127 0 127
-0.129894 0.391771 -0.034397 76 0 153
-0.689382 -0.353636 0.342541 76 0 153
0.221149 0.391771 -0.012104 0 255 0
0.621471 0.537839 -0.359484 255 0 0
0.658936 -0.309373 -0.267791 127 0 127
-0.335100 -0.023057 0.432346 127 127 0
0.658936 0.054121 -0.002202 127 0 127
0.428047 -0.077893 -0.262444 76 0 153
-0.464794 -0.214392 0.409758 127 127 0
-0.474227 -0.104859 0.133311 76 0 153
0.465671 -0.077893 0.257205 76 0 153
0.323578 -0.355836 -0.417094 76 153 0
-0.311678 -0.555257 -0.457543 153 0 76
-0.558883 -0.077893 -0.162813 76 0 153
-0.144237 0.266716 0.432319 127 127 0
0.088593 0.373794 -0.155461 204 51 127
-0.619551 0.481659 0.050961 0 127 127
0.227063 0.243734 -0.417094 76 153 0
-0.234716 -0.104859 0.177619 76 0 153
0.206873 0.538483 0.378414 0 0 255
-0.707359 0.507477 -0.129858 0 127 127
-0.689382 0.300616 -0.250222 0 127 127
0.612821 -0.410451 -0.430577 76 153 0
0.625461 -0.161066 -0.417094 76 153 0
0.182818 0.149555 0.409758 0 127 127
-0.707359 0.270908 0.293724 76 0 153
-0.623811 -0.077893 -0.251676 76 0 153
0.643453 0.060919 0.405353 0 127 127
0.658936 -0.435341 0.198203 127 0 127
-0.703722 -0.662655 -0.457543 76 0 153
0.676914 0.157063 0.214460 127 0 127
0.085394 -0.077893 0.286371 76 0 153
-0.063781 -0.104859 0.224303 76 0 153
-0.355468 -0.149013 -0.430577 76 153 0
-0.058250 0.541817 -0.457543 127 127 0
-0.297464 -0.157529 -0.417094 76 153 0
0.580284 0.416068 -0.171780 0 0 255
0.196159 0.007907 -0.430577 76 153 0
-0.134011 0.488759 -0.417094 76 153 0
0.583669 0.373794 -0.099509 0 0 255
-0.415198 0.529278 0.405380 0 0 255
0.658936 0.026947 0.285486 127 0 127
0.676914 -0.360887 0.178559 127 0 127
-0.157296 0.096907 -0.417094 76 153 0
-0.707359 -0.257361 0.311481 76 0 153
-0.612599 0.537839 -0.347864 0 255 0
0.658936 0.323186 0.272633 127 0 127
-0.689382 -0.125492 0.376285 76 0 153
-0.673054 -0.077893 -0.272728 76 0 153
0.022363 -0.303196 0.378414 153 76 0
0.658936 -0.485572 -0.109718 127 0 127
-0.689382 0.362327 -0.036469 0 127 127
-0.054013 0.467182 0.425758 127 0 127
-0.053401 -0.077893 0.271232 76 0 153
-0.262119 0.022932 0.432346 127 127 0
-0.540622 0.447769 -0.430577 76 153 0
0.405159 -0.032732 -0.417094 76 153 0
0.455731 -0.077893 0.347697 76 0 153
0.019355 0.564806 0.380648 0 0 255
-0.689382 -0.078833 0.004360 0 127 127
-0.132503 -0.104859 0.228569 76 0 153
-0.707359 0.350508 -0.235593 0 127 127
-0.227479 0.135674 -0.430577 76 153 0
-0.689382 -0.001994 0.079206 0 127 127
0.676914 -0.242983 0.033716 127 0 127
0.309282 0.391771 -0.083175 0 255 0
0.676914 0.124996 0.139677 127 0 127
0.647182 -0.087691 -0.417094 76 153 0
0.428973 0.391771 0.232218 0 255 0
0.063429 0.477011 0.348943 204 51 127
0.676914 -0.214371 0.005609 127 0 127
-0.186996 0.552165 -0.430577 127 127 0
-0.145615 -0.104859 0.119122 76 0 153
-0.152771 0.149075 0.419935 127 127 0
0.093639 0.437848 -0.313723 255 0 0
-0.103638 -0.484944 -0.430577 76 153 0
0.529639 0.068497 -0.417094 76 153 0
0.536009 -0.077893 -0.018265 76 0 153
0.114925 0.481659 0.395692 153 0 76
-0.270425 0.103330 -0.430577 76 153 0
-0.707359 -0.667874 -0.412982 76 0 153
-0.123707 -0.104859 -0.402408 76 0 153
-0.277369 -0.093867 -0.430577 76 153 0
-0.707359 -0.098908 -0.061725 0 127 127
-0.707359 -0.114918 0.224890 0 127 127
-0.637696 0.380319 0.198525 0 127 127
-0.707359 0.457917 -0.157464 0 127 127
0.643584 0.519862 0.334124 255 0 0
0.090395 0.408918 -0.115530 204 51 127
0.676914 -0.132734 -0.185390 127 0 127
0.045389 0.080683 0.405353 0 127 127
-0.589665 0.391771 -0.240953 76 0 153
0.124915 0.391771 0.070164 0 255 0
0.383883 0.398513 -0.151730 0 255 0
-0.689382 0.062283 0.160258 0 127 127
-0.259336 0.032794 -0.417094 76 153 0
-0.707359 -0.426822 0.052184 0 127 127
-0.253953 -0.056911 0.432346 127 127 0
0.355854 -0.104859 -0.170930 76 0 153
-0.514634 -0.483852 -0.417094 76 153 0
-0.698918 0.564806 -0.350495 0 127 127
-0.398129 0.258612 0.432319 127 127 0
-0.637696 0.407375 0.302554 0 127 127
0.607251 0.455966 -0.222954 0 0 255
-0.097526 -0.283592 0.405353 127 127 0
0.458034 0.038747 0.409758 0 127 127
0.440439 0.391771 0.104986 0 255 0
-0.051551 -0.077893 0.059363 76 0 153
-0.622491 0.476740 -0.457543 127 127 0
0.658936 -0.483788 0.311345 0 127 127
0.494432 0.214383 -0.417094 76 153 0
0.301077 -0.104859 -0.103343 76 0 153
-0.459174 0.456940 -0.455153 127 127 0
0.063429 0.452031 -0.218030 204 51 127
0.180116 0.039397 0.432346 0 127 127
-0.689382 -0.047309 0.375977 76 0 153
-0.707359 -0.584552 0.189200 76 0 153
-0.112461 0.525998 0.405380 0 0 255
-0.591238 -0.104859 0.035233 76 0 153
0.364984 0.416355 -0.430577 76 153 0
-0.541153 -0.468905 -0.002293 153 0 76
-0.515855 0.455337 -0.313723 153 0 76
0.635329 -0.104859 -0.313687 76 0 153
-0.487647 0.490441 -0.457543 127 127 0
0.148053 0.369879 0.426502 153 0 76
-0.392008 0.419191 0.405380 127 0 127
-0.093875 0.453626 0.356181 76 153 0
0.356724 -0.104859 -0.085582 76 0 153
0.676914 0.063406 0.171143 127 0 127
-0.707359 0.262439 -0.353418 0 127 127
-0.707359 -0.243307 -0.246537 0 127 127
0.374190 -0.267978 -0.417094 76 153 0
-0.689382 0.223254 0.021798 0 127 127
-0.317000 0.224797 0.432319 127 127 0
0.545791 -0.104859 -0.063435 76 0 153
-0.307911 0.391771 0.061377 76 0 153
0.220155 -0.468905 0.348156 153 0 76
0.093734 0.486585 -0.417094 76 153 0
0.196130 -0.387039 0.409758 0 127 127
0.536366 0.120490 -0.417094 76 153 0
-0.093875 0.474569 -0.146520 76 153 0
-0.707359 -0.020784 0.178343 0 127 127
-0.118782 -0.015737 0.405353 127 127 0
0.112297 0.158227 0.409758 0 127 127
0.676914 -0.563850 -0.263362 76 0 153
-0.024039 -0.077893 -0.053102 76 0 153
-0.231925 0.408220 -0.430577 76 153 0
-0.689382 0.329717 -0.349186 0 127 127
0.479389 -0.104859 0.058897 76 0 153
-0.592095 -0.104859 0.257538 76 0 153
-0.707359 -0.388327 -0.456448 0 127 127
-0.658756 0.136001 0.405353 127 127 0
0.008206 0.385311 0.405380 153 76 0
-0.560788 -0.104859 -0.326993 76 0 153
0.274418 0.398513 0.364830 0 255 0
0.318190 -0.077893 -0.387751 76 0 153
-0.701791 0.385695 0.378414 76 0 153
-0.689382 0.506559 0.209982 0 127 127
-0.240893 -0.077893 0.300979 76 0 153
0.676914 -0.488155 0.025043 127 0 127
0.676914 0.299310 -0.322679 127 0 127
-0.533662 0.403149 0.378414 127 0 127
-0.684976 -0.104859 0.189672 76 0 153
0.090395 0.385005 0.176109 204 51 127
0.288877 0.505216 -0.417094 76 153 0
-0.409702 -0.077893 0.293627 76 0 153
0.374991 0.299603 -0.417094 76 153 0
-0.594009 0.503254 0.405380 127 0 127
-0.315290 -0.513849 0.385170 153 0 76
0.011530 0.519862 -0.429044 76 153 0
0.064098 0.373794 -0.020389 204 51 127
0.153397 0.373794 0.379100 153 0 76
-0.367277 -0.065561 -0.417094 76 153 0
0.669379 0.462043 -0.457543 127 0 127
-0.158179 0.456940 -0.450806 127 127 0
0.644457 -0.325773 0.405380 127 0 127
-0.292885 -0.077893 -0.350478 76 0 153
0.424205 0.415923 -0.417094 76 153 0
-0.609627 0.537839 0.227568 0 255 0
0.631970 0.508976 0.394960 127 0 127
-0.421715 -0.104859 0.142469 76 0 153
-0.619009 -0.468905 0.293855 153 0 76
-0.120841 0.465168 0.146714 76 153 0
0.658936 -0.217303 -0.345623 127 0 127
0.658936 0.367572 -0.052509 127 0 127
-0.707359 -0.293509 0.079149 0 127 127
0.676914 -0.611934 0.199222 76 0 153
-0.228533 0.222984 0.431172 127 127 0
-0.581516 0.520976 -0.274128 0 255 0
-0.101642 0.483362 0.432346 127 0 127
-0.445898 -0.587773 -0.457543 153 0 76
-0.707359 0.170318 -0.266813 0 127 127
-0.707359 -0.658598 -0.005137 76 0 153
0.634428 -0.305697 0.432319 0 127 127
-0.517680 -0.336054 0.409758 127 127 0
-0.391850 -0.399817 0.425775 127 127 0
0.334864 -0.077893 -0.315667 76 0 153
-0.581149 0.298426 0.405380 204 51 127
-0.077290 0.410190 0.405380 127 0 127
0.570463 -0.104859 -0.271723 76 0 153
-0.464817 -0.468905 -0.163984 153 0 76
-0.029211 -0.468905 -0.015707 153 0 76
0.305896 -0.382288 0.409758 0 127 127
0.016551 -0.257293 0.405380 153 76 0
-0.643038 -0.077893 0.123219 76 0 153
-0.560267 -0.104859 0.058049 76 0 153
0.490663 0.073081 -0.430577 76 153 0
0.087717 -0.468905 0.162668 153 0 76
0.005139 -0.129363 -0.430577 76 153 0
0.090395 0.451825 -0.282826 204 51 127
-0.501889 0.303322 0.378414 204 51 127
0.094287 -0.104859 -0.221062 76 0 153
0.451144 -0.104859 -0.019473 76 0 153
0.676914 0.562060 -0.274154 127 0 127
-0.413551 -0.204382 -0.417094 76 153 0
-0.053338 -0.388583 0.424978 127 127 0
0.135968 0.325285 0.432346 153 0 76
-0.654065 0.537839 -0.363715 0 255 0
-0.311958 -0.077893 0.335488 76 0 153
0.607251 0.402779 0.056214 0 0 255
0.200173 -0.077893 0.115703 76 0 153
-0.514532 -0.468905 -0.275416 153 0 76
0.519905 -0.104859 0.097508 76 0 153
0.101752 -0.640385 0.293020 153 76 0
0.243458 0.509386 0.405380 153 0 76
-0.286741 -0.077893 -0.387658 76 0 153
0.194500 -0.418167 -0.430577 76 153 0
0.676914 0.008314 0.137074 127 0 127
-0.707359 -0.425669 -0.449268 0 127 127
0.497244 -0.104859 -0.218394 76 0 153
0.542498 0.365960 0.405380 153 0 76
-0.233546 -0.468905 -0.018795 153 0 76
-0.707359 0.165418 -0.385051 0 127 127
0.676914 -0.413189 0.246421 127 0 127
0.042582 -0.464410 -0.449234 153 0 76
0.072108 -0.446206 0.432319 0 127 127
-0.347628 0.246365 0.479443 127 0 127
0.524750 -0.663199 0.293020 153 76 0
0.091262 0.386593 0.432346 153 0 76
0.441757 0.324956 0.378414 204 51 127
-0.707359 0.405011 -0.208492 0 127 127
-0.532760 -0.513849 0.401996 153 0 76
-0.175718 0.174739 0.424521 127 127 0
-0.093875 0.433074 0.179040 76 153 0
0.617578 -0.104859 0.283890 76 0 153
0.641309 0.519862 0.102800 255 0 0
-0.707359 0.035272 0.321162 76 0 153
-0.091529 -0.077893 -0.274241 76 0 153
-0.093875 0.424690 0.383522 76 153 0
-0.190905 -0.077893 -0.074562 76 0 153
0.155967 -0.104859 0.096142 76 0 153
-0.381811 0.391771 0.249582 76 0 153
-0.382354 -0.555550 0.293020 153 76 0
0.082766 -0.077893 -0.282925 76 0 153
0.179661 -0.104859 -0.082402 76 0 153
-0.427958 -0.104859 -0.148199 76 0 153
-0.546759 0.507299 -0.457543 127 127 0
0.033982 -0.468905 -0.388901 153 0 76
0.658936 -0.335224 -0.285048 127 0 127
0.212342 -0.077893 -0.036671 76 0 153
0.127278 -0.104859 0.291536 76 0 153
0.676914 -0.262554 0.072635 127 0 127
-0.030538 -0.283421 -0.417094 76 153 0
0.288576 0.510873 0.399501 0 0 255
0.421106 -0.468905 -0.275910 153 0 76
0.045852 -0.330292 0.432319 0 127 127
0.128742 -0.471536 -0.430577 76 153 0
-0.614458 -0.104859 -0.018716 76 0 153
-0.168638 -0.528834 0.293020 153 76 0
0.063429 0.394441 0.292021 204 51 127
0.309998 0.445136 -0.286757 255 0 0
0.199153 -0.104859 -0.021866 76 0 153
-0.311569 -0.077893 -0.044877 76 0 153
0.587906 0.101968 0.405353 0 127 127
0.214419 0.156265 0.432346 0 127 127
0.158917 0.391771 -0.118494 0 255 0
-0.470214 -0.249932 0.432346 127 127 0
0.470832 0.421899 -0.313723 255 0 0
0.179820 0.294693 0.406770 0 127 127
-0.665869 -0.213749 0.432319 127 127 0
0.002111 -0.077893 0.120976 76 0 153
0.376392 -0.104859 -0.287811 76 0 153
0.676914 0.148248 -0.021588 127 0 127
-0.556865 0.398513 0.248984 76 0 153
-0.451595 -0.104859 -0.410182 76 0 153
0.067611 -0.077893 0.208249 76 0 153
-0.471959 0.463892 -0.313723 153 0 76
-0.017998 -0.299216 0.405380 153 76 0
-0.460979 -0.468905 0.073890 153 0 76
-0.707359 -0.085267 0.126226 0 127 127
0.206095 -0.191987 -0.430577 76 153 0
-0.432989 -0.077893 0.046212 76 0 153
0.580284 0.425050 -0.126020 0 0 255
0.507480 0.266885 0.405353 0 127 127
-0.381701 -0.077893 0.120237 76 0 153
-0.050106 -0.016238 0.378414 153 76 0
0.676914 -0.581288 0.189570 76 0 153
-0.147817 0.313758 0.406649 127 0 127
-0.242333 -0.513849 0.378987 153 0 76
-0.707359 0.080510 0.305212 76 0 153
-0.365075 0.398944 0.425564 127 0 127
0.657246 0.537839 0.313348 255 0 0
-0.475510 -0.474756 -0.430577 76 153 0
-0.689382 -0.027247 0.144017 0 127 127
-0.093875 0.384821 -0.206523 76 153 0
